# .PCD v0.7 - Point Cloud Data file format
VERSION 0.7
FIELDS x y z
SIZE 4 4 4
TYPE F F F
COUNT 1 1 1
WIDTH 582
HEIGHT 1
VIEWPOINT 0 0 0 1 0 0 0
POINTS 582
DATA ascii
-0.096559003 -2.2068958 0.76913649
-0.0925285 -2.1942337 0.76715231
-0.13838001 -2.2325287 0.7780627
-0.14054 -2.2282209 0.77780664
-0.13293429 -2.2263777 0.77769202
-0.12816 -2.2208741 0.77523947
-0.14222001 -2.2178245 0.7729454
-0.123752 -2.217917 0.77568901
-0.11488834 -2.2168796 0.77507877
-0.10515075 -2.2136624 0.77470875
-0.099251747 -2.2123022 0.77470422
-0.10146 -2.2093205 0.77244318
-0.096638501 -2.2056193 0.77482092
-0.09299767 -2.1921027 0.77412581
-0.091376998 -2.1886437 0.77738076
-0.13838001 -2.2312732 0.78009635
-0.14054 -2.2250822 0.7828908
-0.134938 -2.2265482 0.78489429
-0.12466101 -2.2209918 0.7858988
-0.1177375 -2.2207415 0.78630471
-0.1069 -2.2201624 0.78362608
-0.12509 -2.2183249 0.78298527
-0.11436167 -2.2179072 0.78366178
-0.10598374 -2.2150066 0.78474301
-0.099414997 -2.2115784 0.78306264
-0.10179 -2.2090778 0.78711295
-0.097289398 -2.2045076 0.78450286
-0.094038993 -2.1927419 0.78497207
-0.091526002 -2.1884949 0.78466529
-0.13711999 -2.2424066 0.7989924
-0.13528714 -2.2352569 0.79572505
-0.13141 -2.2287343 0.79163277
-0.12534125 -2.2254291 0.79417849
-0.116135 -2.2228611 0.79450238
-0.108455 -2.2212131 0.79639113
-0.113055 -2.2188096 0.79305059
-0.10460375 -2.2160361 0.7939266
-0.099148497 -2.2132676 0.79479408
-0.096298002 -2.2057183 0.79496568
-0.092956997 -2.195823 0.79567659
-0.091675997 -2.1896636 0.79000551
-0.14145499 -2.251138 0.80712122
-0.13805 -2.2549777 0.80851626
-0.14242999 -2.2486496 0.8037281
-0.13412601 -2.245744 0.8062073
-0.12526 -2.2410865 0.80855465
-0.12435223 -2.2361093 0.80341858
-0.11364 -2.2345607 0.80592692
-0.10723 -2.2335699 0.80835652
-0.11482 -2.2273605 0.80109137
-0.10339 -2.2247148 0.80452019
-0.10008 -2.2186968 0.80046701
-0.097682334 -2.2162092 0.80456036
-0.094338246 -2.2048368 0.80664164
-0.092280999 -2.1984611 0.80430967
-0.14173333 -2.2530503 0.81287545
-0.138165 -2.2536623 0.81435883
-0.14209999 -2.2494462 0.81747627
-0.13325667 -2.2436328 0.815566
-0.12433001 -2.2432208 0.81499624
-0.11679401 -2.2417653 0.81636351
-0.1301 -2.2398152 0.81061387
-0.12043 -2.2398152 0.81061387
-0.11350223 -2.2390857 0.81427026
-0.10663834 -2.2343454 0.81576133
-0.10227501 -2.2286732 0.81474113
-0.098171674 -2.2235224 0.81473231
-0.094175197 -2.2060025 0.81379557
-0.14214 -2.2531381 0.8255831
-0.138395 -2.2523415 0.82401752
-0.12632 -2.2510567 0.82990563
-0.14534 -2.2441273 0.82609171
-0.13345399 -2.244875 0.82560384
-0.12468667 -2.2466879 0.82491344
-0.11566 -2.2423203 0.82457662
-0.112098 -2.238647 0.82735395
-0.10652364 -2.2351265 0.82495749
-0.102205 -2.2290573 0.82432711
-0.098500505 -2.2265563 0.82466632
-0.095659338 -2.2147207 0.82403964
-0.14119001 -2.2548859 0.83131778
-0.13875 -2.2548859 0.83131778
-0.14150999 -2.2455795 0.83442658
-0.13540454 -2.2442226 0.83339578
-0.12552999 -2.2436957 0.83364362
-0.11618 -2.2409358 0.83126092
-0.14279 -2.2358391 0.83570921
-0.13315 -2.2368777 0.83644986
-0.124157 -2.2363441 0.83717567
-0.1147925 -2.2344084 0.8351711
-0.10568599 -2.2324586 0.83292353
-0.10367667 -2.2289317 0.83566672
-0.097887993 -2.2251928 0.83553648
-0.096006006 -2.2189884 0.83321249
-0.14094999 -2.2408078 0.84650671
-0.14126 -2.2370262 0.84316146
-0.134608 -2.2350917 0.84468651
-0.12478874 -2.2344987 0.84539926
-0.11388668 -2.2314756 0.84404659
-0.10550635 -2.2311957 0.84426916
-0.12104 -2.2294471 0.8498702
-0.11710714 -2.2289138 0.84638298
-0.10473666 -2.2291765 0.84607822
-0.097093448 -2.2266603 0.84596634
-0.14100999 -2.2372751 0.85413289
-0.13490935 -2.2353485 0.85433406
-0.12522182 -2.2317681 0.85353416
-0.11247601 -2.2316289 0.85376024
-0.1072425 -2.2309256 0.85489917
-0.089746997 -2.2331223 0.85895544
-0.13087 -2.2268329 0.85781664
-0.12489 -2.2286866 0.85852623
-0.11585251 -2.2273748 0.85631996
-0.10471917 -2.2277901 0.85626584
-0.09601707 -2.2255242 0.85512269
-0.094145998 -2.2192774 0.85872853
-0.14119001 -2.2343545 0.86457455
-0.13717636 -2.2341259 0.86425245
-0.089746997 -2.2318406 0.86103165
-0.14291 -2.2205114 0.86434406
-0.13215101 -2.2234712 0.86548865
-0.12488999 -2.2242126 0.86577338
-0.11508701 -2.2229161 0.86527431
-0.10551474 -2.2223303 0.86491406
-0.096265405 -2.2217746 0.86304027
-0.088092752 -2.2250051 0.86544085
-0.10159 -2.2192349 0.86641181
-0.094711304 -2.2170882 0.86608189
-0.14143001 -2.2330058 0.87437296
-0.13786857 -2.2315583 0.87454212
-0.132365 -2.2212911 0.87621611
-0.12499624 -2.2203469 0.87584192
-0.115926 -2.220366 0.87352669
-0.1054175 -2.2203786 0.87198323
-0.099331997 -2.2203786 0.87198323
-0.088528 -2.2254369 0.87140417
-0.132195 -2.2184584 0.87509334
-0.12489 -2.2184584 0.87509334
-0.11482274 -2.2179346 0.87594151
-0.10540249 -2.2175109 0.87600964
-0.09563984 -2.2150755 0.8742618
-0.094145998 -2.2090807 0.87524456
-0.14179 -2.2341778 0.88389611
-0.13758667 -2.2318594 0.88384455
-0.14155 -2.2265415 0.88865089
-0.13612287 -2.2242188 0.88643044
-0.12479143 -2.2207906 0.88654512
-0.14119001 -2.2189593 0.88951111
-0.13418876 -2.2155306 0.88554639
-0.12560333 -2.218858 0.88544494
-0.11535063 -2.2171111 0.88488942
-0.10555375 -2.2161686 0.88451296
-0.097468995 -2.2151074 0.88434762
-0.13513401 -2.2062142 0.88750219
-0.094305001 -2.2090225 0.88295329
-0.13164 -2.2201564 0.89518607
-0.12641667 -2.2209811 0.89638847
-0.11574 -2.2201564 0.89518607
-0.10648 -2.2218056 0.89759094
-0.098262332 -2.2209809 0.89638853
-0.14106999 -2.2138679 0.89395082
-0.134304 -2.2141001 0.89585888
-0.12457 -2.2180712 0.89348745
-0.11574454 -2.2178667 0.89474243
-0.10498385 -2.2170534 0.89494103
-0.096032165 -2.2170165 0.89392716
-0.13579249 -2.20699 0.89181399
-0.1424 -2.2314239 0.90758342
-0.13277 -2.235275 0.90915012
-0.1239775 -2.2314174 0.90954506
-0.11037 -2.2301316 0.90967667
-0.10052 -2.2301316 0.90967667
-0.14191 -2.2225299 0.90657032
-0.13651501 -2.2221344 0.90467292
-0.12510332 -2.2240641 0.90284795
-0.11562201 -2.2234647 0.90435171
-0.10500889 -2.221859 0.90427315
-0.096708797 -2.2228234 0.90461028
-0.13677001 -2.2187693 0.9050476
-0.10482 -2.217535 0.90323961
-0.13180333 -2.2446554 0.91737014
-0.12715 -2.2422972 0.91728741
-0.141525 -2.2326591 0.91728956
-0.13439 -2.2347312 0.91471398
-0.12393666 -2.2369583 0.9142282
-0.1142 -2.2341359 0.91545469
-0.10325 -2.2329822 0.91676629
-0.097458996 -2.2318027 0.91737586
-0.1424 -2.2288392 0.91176987
-0.13739334 -2.2271531 0.91196293
-0.1153 -2.2288392 0.91176987
-0.10539714 -2.2262955 0.91374189
-0.096209995 -2.2275629 0.91388476
-0.1328475 -2.252255 0.92666674
-0.12916 -2.2525835 0.92813301
-0.14226 -2.2422347 0.92519331
-0.13605499 -2.2435403 0.92307884
-0.12411538 -2.2446611 0.92456537
-0.11541144 -2.2410486 0.92432749
-0.14239 -2.237318 0.92405194
-0.13674 -2.2364593 0.92440236
-0.11396001 -2.2383811 0.92493153
-0.10408917 -2.234103 0.9247064
-0.0979672 -2.2320881 0.92523879
-0.10572 -2.2281151 0.92464989
-0.095263004 -2.2277765 0.92714965
-0.14312001 -2.2519231 0.93719757
-0.133755 -2.2530596 0.93533289
-0.12931333 -2.2519262 0.9345277
-0.14263 -2.2454276 0.93182415
-0.136465 -2.2454054 0.93381125
-0.12405 -2.2450564 0.93566138
-0.11533003 -2.2414107 0.93433303
-0.11381 -2.2389333 0.93444312
-0.10546429 -2.2352881 0.9325434
-0.098563001 -2.2312679 0.93125021
-0.10351334 -2.2286677 0.93546224
-0.09650062 -2.2238851 0.93345273
-0.094471 -2.2171488 0.93590927
-0.14278333 -2.2570562 0.94468337
-0.13513184 -2.2533677 0.94484276
-0.12966751 -2.2534583 0.94451493
-0.13574499 -2.2492445 0.94543916
-0.124349 -2.24562 0.94578934
-0.11560071 -2.2414508 0.94502312
-0.10922001 -2.2418845 0.945463
-0.11401 -2.2388446 0.94239163
-0.106405 -2.2333636 0.94541579
-0.102983 -2.2284362 0.94520283
-0.098563001 -2.2228141 0.94494331
-0.094148442 -2.2146611 0.94427466
-0.14332858 -2.2628937 0.95483458
-0.14136 -2.2583411 0.95059687
-0.13381539 -2.2530859 0.95541912
-0.12984 -2.2531075 0.95107937
-0.13485 -2.2485003 0.95854187
-0.12495417 -2.2443113 0.95474625
-0.1164 -2.2424779 0.95249689
-0.10941001 -2.2414274 0.95419866
-0.12189 -2.2388005 0.95845318
-0.11551666 -2.2371833 0.95574266
-0.10797501 -2.234901 0.95677441
-0.10392699 -2.2274163 0.95543957
-0.097278804 -2.2220502 0.9555465
-0.088964999 -2.2258821 0.95558298
-0.093624085 -2.2168443 0.95526344
-0.084532328 -2.2158768 0.95618027
-0.078484997 -2.2048142 0.95848978
-0.075629003 -2.1928666 0.95461798
-0.14210001 -2.2656345 0.96314967
-0.14185001 -2.2583296 0.96679622
-0.13508001 -2.2509573 0.96255714
-0.13475001 -2.2469256 0.96731091
-0.12756573 -2.2433543 0.96230876
-0.12405545 -2.2369459 0.96571428
-0.11544158 -2.2345233 0.9649601
-0.108986 -2.2369001 0.96461552
-0.10388909 -2.2263536 0.96553177
-0.098960005 -2.2214928 0.96529436
-0.089041501 -2.2219095 0.96592069
-0.094317503 -2.2166955 0.96500015
-0.083851904 -2.2158165 0.96408254
-0.078687504 -2.2079091 0.96518368
-0.14306454 -2.2564123 0.97585505
-0.13296001 -2.2508523 0.9762432
-0.13409333 -2.2445014 0.97506064
-0.12483571 -2.2340672 0.97563887
-0.11481251 -2.2316835 0.97388375
-0.1096 -2.2340786 0.9739067
-0.1164 -2.2276523 0.97651112
-0.10408728 -2.2257128 0.97529185
-0.095422998 -2.2211738 0.9750123
-0.087339595 -2.2241435 0.9773978
-0.095291391 -2.217572 0.97450703
-0.084078431 -2.2179799 0.97284263
-0.079026334 -2.214133 0.97461432
-0.143012 -2.2561731 0.98327172
-0.14228572 -2.2451291 0.98475158
-0.13372 -2.2460289 0.98139018
-0.143805 -2.2366216 0.98382652
-0.1350307 -2.236604 0.9841069
-0.12733111 -2.2318974 0.98543519
-0.11981 -2.2307289 0.98732793
-0.10979 -2.2327015 0.98413277
-0.14449501 -2.2246277 0.98531246
-0.13711999 -2.2248802 0.98880601
-0.123652 -2.2292008 0.98340666
-0.11560846 -2.228148 0.98535782
-0.10454834 -2.2256906 0.98555821
-0.096183576 -2.2217445 0.98491085
-0.085942812 -2.2227712 0.98489964
-0.14411999 -2.2152543 0.98859823
-0.094925404 -2.2151551 0.98476106
-0.079231501 -2.2165928 0.98243219
-0.14311001 -2.2431059 0.99145538
-0.14132249 -2.2364089 0.99530649
-0.13241832 -2.232734 0.99412084
-0.12405699 -2.231833 0.99435329
-0.10998001 -2.2319648 0.9933207
-0.13661 -2.2235258 0.99499756
-0.12436 -2.2290187 0.99609411
-0.11486667 -2.2274072 0.99537325
-0.10579083 -2.2249234 0.99539828
-0.099590003 -2.2215917 0.9941327
-0.089634001 -2.2228794 0.99471205
-0.094091006 -2.2149193 0.99447018
-0.093707673 -2.2065842 0.99597907
-0.14204556 -2.2350903 1.0062581
-0.13322546 -2.2333291 1.0058554
-0.12418333 -2.2338686 1.0051014
-0.113772 -2.2311265 1.006062
-0.13736001 -2.2215111 1.0022584
-0.11409571 -2.2285657 1.0058421
-0.1047 -2.2241976 1.0044657
-0.099762999 -2.2215111 1.0022584
-0.089111507 -2.2211823 1.0027909
-0.13736001 -2.2188776 1.0065243
-0.097979665 -2.2156484 1.0064248
-0.088798672 -2.215868 1.0060688
-0.092905171 -2.2026479 1.0036874
-0.089427002 -2.208626 1.0073291
-0.092436664 -2.1991882 1.0066265
-0.14387 -2.2409589 1.0192989
-0.14159667 -2.232724 1.013729
-0.13358624 -2.2338071 1.0146791
-0.1241393 -2.2352045 1.0147237
-0.115484 -2.231318 1.0138237
-0.13759001 -2.2214162 1.0104069
-0.11321143 -2.228282 1.0143249
-0.105592 -2.2229848 1.0135963
-0.10244999 -2.2174606 1.0168142
-0.098986499 -2.2151139 1.0152851
-0.089582004 -2.2110801 1.0111592
-0.095050253 -2.2049787 1.0131421
-0.0927632 -2.1984923 1.0157487
-0.14489 -2.2554903 1.0286932
-0.13699 -2.2502084 1.0290637
-0.14183 -2.247515 1.0250504
-0.13541999 -2.2455287 1.0262215
-0.12700801 -2.243803 1.0277886
-0.13247499 -2.2396247 1.0214602
-0.12364143 -2.2382877 1.0247952
-0.11573 -2.2314167 1.0235717
-0.1128 -2.2277045 1.0245879
-0.1073 -2.2226191 1.0230404
-0.10432445 -2.2171206 1.0264382
-0.099936999 -2.2128417 1.0242958
-0.096470438 -2.2052088 1.0252652
-0.092892006 -2.1976275 1.023545
-0.14425001 -2.2634706 1.0365167
-0.14271501 -2.2588077 1.0357888
-0.13787749 -2.2511368 1.0357449
-0.1344 -2.246326 1.0336771
-0.12728001 -2.2426765 1.0349817
-0.122306 -2.2369051 1.0340507
-0.117064 -2.2318988 1.0356115
-0.11291999 -2.2275383 1.0328791
-0.10809333 -2.2225008 1.0356816
-0.10251274 -2.2141025 1.0355273
-0.095854595 -2.2035306 1.0361798
-0.093389161 -2.1987724 1.0337601
-0.14511286 -2.2644155 1.0451564
-0.14092001 -2.2560947 1.0443236
-0.136042 -2.2525041 1.0451806
-0.1335275 -2.2481194 1.0448205
-0.12673908 -2.2439456 1.045161
-0.12164667 -2.238615 1.0450503
-0.11570082 -2.2333148 1.0446572
-0.111045 -2.2282815 1.043926
-0.10834667 -2.2236855 1.0445496
-0.1030325 -2.2162018 1.0451943
-0.094989657 -2.2024882 1.044704
-0.14369223 -2.2657268 1.0567633
-0.13732749 -2.2550461 1.0543501
-0.13359715 -2.2475741 1.0545696
-0.12666908 -2.2422061 1.0540178
-0.12499 -2.2383387 1.0564752
-0.11572538 -2.2358611 1.0554366
-0.10899 -2.2314806 1.0593984
-0.1050925 -2.2232566 1.055135
-0.10244333 -2.2179244 1.053881
-0.098109998 -2.2117798 1.0583768
-0.095330827 -2.2071173 1.0538414
-0.144274 -2.263741 1.0622342
-0.14269221 -2.2567301 1.0666609
-0.13821 -2.2539985 1.0644226
-0.14309667 -2.2459555 1.0690751
-0.13416098 -2.2437034 1.065184
-0.12555332 -2.2407327 1.0609734
-0.13492 -2.2380483 1.0653216
-0.12584278 -2.2345631 1.0658476
-0.11563189 -2.2348785 1.0652202
-0.10911667 -2.2314103 1.0649687
-0.10451715 -2.2249999 1.0651097
-0.10099 -2.2195809 1.0621117
-0.095778666 -2.2143316 1.0637933
-0.14286363 -2.2427692 1.074236
-0.13797 -2.2425857 1.0745336
-0.14348 -2.2355714 1.0775189
-0.13425334 -2.2361612 1.0747441
-0.12521401 -2.2326775 1.0740211
-0.11582834 -2.2339776 1.074643
-0.10943666 -2.233978 1.0746431
-0.126055 -2.2277484 1.0753042
-0.11959 -2.229995 1.0783659
-0.104316 -2.2267041 1.0745208
-0.096743278 -2.2249017 1.0759014
-0.096087001 -2.2194786 1.0704631
-0.14266101 -2.2334692 1.0834371
-0.13500832 -2.2329791 1.0838121
-0.11469 -2.2325459 1.0824202
-0.10957 -2.2325456 1.0824202
-0.13132 -2.2291837 1.0878661
-0.125185 -2.2276094 1.0842764
-0.1172011 -2.228991 1.086359
-0.10467076 -2.2264659 1.0846975
-0.09667512 -2.2281425 1.0850047
-0.144895 -2.2405164 1.0948273
-0.1429857 -2.2359033 1.0937876
-0.135245 -2.2320504 1.0949482
-0.12700666 -2.2319858 1.0972861
-0.1142525 -2.2314737 1.0925324
-0.10976 -2.231811 1.0919857
-0.096708 -2.2322786 1.0954164
-0.13284251 -2.2294536 1.0958041
-0.12282 -2.2286086 1.0953118
-0.11559571 -2.2288377 1.0956054
-0.10547937 -2.2259638 1.0962218
-0.096942 -2.2284429 1.0974413
-0.14464 -2.2525048 1.1092919
-0.145154 -2.2441912 1.1057787
-0.14116 -2.2377682 1.1034667
-0.13468286 -2.2324085 1.1042888
-0.12583125 -2.2322388 1.1050229
-0.11509667 -2.231061 1.1015764
-0.094628498 -2.2334235 1.1020331
-0.13478833 -2.2288105 1.1052213
-0.12081999 -2.2277071 1.1049149
-0.11509666 -2.2283607 1.1059502
-0.10563539 -2.2238767 1.1054817
-0.095472261 -2.2254472 1.1056446
-0.092930496 -2.216413 1.1085515
-0.14680667 -2.2565334 1.1170439
-0.14166501 -2.2410307 1.1151237
-0.14154001 -2.2390537 1.1141381
-0.13378499 -2.2316656 1.1143984
-0.12640874 -2.2321599 1.1146446
-0.13548286 -2.227772 1.1142465
-0.12204222 -2.2255068 1.1143801
-0.11489923 -2.2233772 1.1140219
-0.10707699 -2.2216427 1.1143188
-0.099227004 -2.2225289 1.1140002
-0.105 -2.218051 1.1142738
-0.094267666 -2.2143648 1.1146606
-0.094209999 -2.2096889 1.1194431
-0.14586334 -2.2674601 1.1253606
-0.14789501 -2.2565334 1.1242774
-0.15242 -2.2416098 1.1269397
-0.14217499 -2.2456756 1.1246371
-0.15291333 -2.2349026 1.1264459
-0.13585401 -2.2325428 1.1246841
-0.12604 -2.2322719 1.1251234
-0.15313666 -2.2242572 1.1239556
-0.14929 -2.2295558 1.1295224
-0.13444364 -2.2264297 1.1245316
-0.124515 -2.2265708 1.1251246
-0.11437999 -2.221977 1.1248569
-0.10501 -2.2202389 1.1276722
-0.099862002 -2.2215908 1.1254826
-0.15207 -2.2129521 1.1225331
-0.14849 -2.2162154 1.125623
-0.11787 -2.2188888 1.129859
-0.10488334 -2.2184567 1.1248481
-0.095217392 -2.2133217 1.1253034
-0.151665 -2.2057476 1.1217343
-0.14796001 -2.2069993 1.1237997
-0.093096003 -2.2095873 1.1279831
-0.15118 -2.2619708 1.1371711
-0.14722715 -2.266094 1.1354961
-0.150775 -2.2558267 1.1340833
-0.14295 -2.2537701 1.1374145
-0.15008999 -2.2429228 1.1333795
-0.14256001 -2.2496829 1.1309953
-0.134895 -2.2316878 1.1344448
-0.12627 -2.2307835 1.1359098
-0.13580801 -2.2252083 1.1348134
-0.12463727 -2.2264516 1.1344991
-0.11386818 -2.2213449 1.1342559
-0.11421999 -2.218761 1.1384416
-0.104532 -2.2168338 1.1348625
-0.097186401 -2.2135043 1.1334405
-0.094186671 -2.2080233 1.1351696
-0.14693999 -2.2647161 1.14367
-0.146478 -2.2575736 1.1442931
-0.13519222 -2.2322164 1.1440585
-0.1265 -2.2307198 1.1445789
-0.13620201 -2.2274938 1.144665
-0.12495399 -2.2266977 1.1448371
-0.11449167 -2.2213688 1.1455752
-0.10797 -2.2200632 1.1448983
-0.10340857 -2.2166145 1.1443657
-0.094301395 -2.211776 1.1464056
-0.089890003 -2.2173474 1.1492975
-0.095316 -2.2084217 1.1446714
-0.14834 -2.2708638 1.1577924
-0.14582749 -2.2626362 1.1536062
-0.1436 -2.2592134 1.1503942
-0.14021 -2.2373805 1.1596792
-0.13505375 -2.234504 1.1545349
-0.127435 -2.2313063 1.1543367
-0.123425 -2.2279367 1.1555119
-0.11454 -2.2251267 1.1559743
-0.10826 -2.2219105 1.1545651
-0.090213001 -2.2225511 1.1578104
-0.10343 -2.2171185 1.1546938
-0.094729751 -2.2137651 1.1550524
-0.094884999 -2.2079263 1.1559914
-0.14849856 -2.2731905 1.1655272
-0.14411999 -2.261915 1.163532
-0.14411999 -2.2591515 1.1680077
-0.14098001 -2.2482026 1.1682291
-0.13439801 -2.2435646 1.1652339
-0.12535428 -2.2355924 1.1637715
-0.11776201 -2.2319098 1.1667894
-0.11291 -2.2283695 1.1655182
-0.10855 -2.2231431 1.165418
-0.09032166 -2.2215824 1.1650902
-0.087779008 -2.2224615 1.166522
-0.103782 -2.2143371 1.1634246
-0.092231669 -2.214473 1.1637882
-0.10124858 -2.2051744 1.1653439
-0.094635218 -2.2041485 1.1640136
-0.0958132 -2.1993577 1.1648451
-0.15019999 -2.2723169 1.1733329
-0.14756 -2.2723169 1.1733329
-0.144785 -2.2674465 1.1767485
-0.14174999 -2.2590992 1.1768484
-0.13676 -2.2550066 1.1747214
-0.13153334 -2.2477162 1.1748549
-0.12693 -2.2422523 1.1749485
-0.123255 -2.2348626 1.1756074
-0.11752 -2.2321913 1.1723675
-0.12197 -2.2250617 1.1796329
-0.1160425 -2.2257557 1.1755897
-0.12175 -2.219624 1.1796839
-0.1112 -2.2186828 1.1747839
-0.10701286 -2.2152824 1.1757025
-0.090213001 -2.210978 1.1765559
-0.087660499 -2.2147 1.1726689
-0.101952 -2.2071495 1.1742296
-0.093782187 -2.204999 1.1761689
-0.15104 -2.2813911 1.1854751
-0.14865001 -2.2855744 1.1876463
-0.15075999 -2.2786 1.1810489
-0.14624333 -2.274884 1.1840862
-0.1424 -2.2674584 1.1856759
-0.13866 -2.2637475 1.184231
-0.13325 -2.2560098 1.1841372
-0.13097 -2.2480986 1.1859107
-0.12716749 -2.2375491 1.1832964
-0.12374666 -2.2232161 1.1840502
-0.11596546 -2.2250948 1.1858093
-0.10904 -2.22363 1.1862351
-0.10403 -2.2150197 1.1854674
-0.10066999 -2.2081964 1.1853449
-0.097066998 -2.2053435 1.1828275
-0.15168667 -2.2884581 1.1951579
-0.14902 -2.2884581 1.1951579
-0.14369801 -2.2771924 1.1958549
-0.13749 -2.270237 1.1945953
-0.138025 -2.2678041 1.1940627
-0.13505334 -2.2563436 1.1932416
-0.13240999 -2.2473741 1.1914628
-0.10974 -2.2343714 1.1993891
-0.115875 -2.2276254 1.1928031
-0.10766 -2.2276027 1.1957587
-0.10373 -2.2182167 1.1907201
-0.15244 -2.2970154 1.2056628
-0.14948 -2.2926726 1.2033696
-0.145354 -2.283704 1.2052952
-0.14057334 -2.2743914 1.2027777
-0.15004 -2.2991586 1.2113285
