# .PCD v0.7 - Point Cloud Data file format
VERSION 0.7
FIELDS x y z
SIZE 4 4 4
TYPE F F F
COUNT 1 1 1
WIDTH 258
HEIGHT 1
VIEWPOINT 0 0 0 1 0 0 0
POINTS 258
DATA ascii
0.032820001 0.049414199 0.71944606
0.076532505 0.04790188 0.71568155
0.080656998 0.048559003 0.718925
0.036703765 0.054416757 0.71835017
0.044795267 0.056704801 0.71644342
0.055470891 0.057503786 0.71488672
0.065060757 0.056205813 0.71469504
0.074123159 0.054660838 0.71768135
0.0390746 0.060437202 0.71922195
0.045873251 0.063040316 0.71856129
0.054904006 0.064098172 0.71790749
0.064096443 0.062765181 0.71818745
0.071582787 0.060476556 0.71929771
0.085528001 0.039423 0.72228998
0.025312148 0.047260173 0.72642606
0.030727902 0.048931498 0.72112399
0.084277056 0.04525559 0.72289139
0.026987771 0.054494422 0.72581214
0.03251325 0.056164645 0.72201931
0.078699201 0.056612607 0.72065282
0.082117118 0.054412812 0.72269565
0.028393934 0.06261903 0.72839564
0.035210695 0.064976953 0.72463399
0.043864351 0.0672132 0.72142851
0.055344615 0.068668522 0.72061855
0.06613341 0.067122251 0.72172982
0.075071588 0.065137066 0.72354275
0.081751704 0.064644381 0.7272352
0.037170086 0.072493568 0.72784579
0.045211233 0.074812628 0.72574109
0.054949429 0.074807175 0.72398603
0.064737089 0.074860506 0.72592396
0.073564969 0.07333231 0.72778553
0.083222166 0.071329676 0.72942668
0.047640603 0.081101865 0.72933739
0.055332106 0.081527889 0.72881758
0.062928952 0.081309445 0.72945327
0.020098999 0.039622001 0.73997998
0.01785329 0.046303071 0.73594028
0.021515932 0.043787453 0.73246008
0.016892575 0.051762264 0.73801774
0.022923945 0.05579447 0.73224521
0.025323752 0.065662846 0.73380327
0.030954165 0.068916664 0.73057824
0.081109174 0.067488499 0.73083407
0.027275154 0.073801532 0.73751265
0.034001354 0.076150022 0.73333377
0.041272283 0.079054579 0.73058856
0.06925375 0.0792455 0.73035502
0.076347314 0.076744899 0.73124409
0.08209043 0.075244501 0.73481798
0.036060959 0.084165037 0.73684764
0.044675082 0.085542984 0.73342323
0.054804351 0.086419091 0.73261738
0.065334626 0.085714452 0.73280621
0.073919855 0.084486619 0.73545295
0.08357913 0.080854252 0.73899376
0.039388798 0.090466395 0.73911202
0.045958366 0.093666628 0.73773062
0.054967713 0.09438996 0.73715454
0.064079314 0.092990518 0.73754442
0.071249798 0.090744197 0.73887599
0.0079100896 0.0187285 0.74834794
0.014756849 0.016068399 0.74917293
0.0083672367 0.020987999 0.74588996
0.011956333 0.025031889 0.74784815
0.015161191 0.036237132 0.74740982
0.020603856 0.037880857 0.74241
0.097638622 0.036717605 0.74839377
0.10123852 0.036625486 0.7490344
0.014787126 0.043094661 0.74388051
0.096263878 0.045301728 0.74635321
0.10451882 0.045752913 0.74910629
0.11387392 0.04725866 0.74589026
0.121122 0.049559198 0.74402004
0.013065165 0.054831501 0.74294454
0.089086518 0.055515997 0.74241316
0.094856642 0.054951195 0.74537838
0.10480021 0.054629885 0.74716681
0.11498155 0.054612521 0.74503201
0.12355405 0.055629585 0.74746287
0.013861923 0.061756387 0.74424845
0.095601402 0.061495371 0.74819815
0.10346715 0.060422141 0.74915427
0.11675333 0.060213666 0.74794668
0.121778 0.060453601 0.74899399
0.024343651 0.076765545 0.74212337
0.081572004 0.079607002 0.74076998
0.026516005 0.085078672 0.74500459
0.031940188 0.087048717 0.74163353
0.078026779 0.08782573 0.74315286
0.0830203 0.085802644 0.74585521
0.027810818 0.092832662 0.74857771
0.034892689 0.095042482 0.74470562
0.043260626 0.09766414 0.74173564
0.055761412 0.099289298 0.74062651
0.065762274 0.097640678 0.74241275
0.07476522 0.095316023 0.74649405
0.082554333 0.090672337 0.74969333
0.037321642 0.10240023 0.74861407
0.0451947 0.1048257 0.74626094
0.054896966 0.10497943 0.74359924
0.064741366 0.10471648 0.74614346
0.072750866 0.10289341 0.74912131
0.047432672 0.11091001 0.74955678
0.05474703 0.11150212 0.74923944
0.06389194 0.11063626 0.74963188
0.0084876996 0.015259802 0.75140107
0.014518845 0.015333786 0.75299835
0.020637 0.017835001 0.75980002
0.016411141 0.025070464 0.75542665
0.0209316 0.028993402 0.75905401
0.096246682 0.027033042 0.7568168
0.1007425 0.028958252 0.75199246
0.016312109 0.031582501 0.75219929
0.020928165 0.031075001 0.75608331
0.094658859 0.033388123 0.75423747
0.10121701 0.032341 0.7508961
0.011045001 0.041482668 0.75050336
0.093464337 0.040524334 0.75199002
0.10385416 0.042326834 0.75053835
0.12769499 0.049946502 0.75690496
0.12805273 0.054253664 0.75276786
0.13255525 0.056304347 0.75517792
0.013443173 0.068106033 0.75570112
0.098334625 0.062967248 0.75072128
0.10225063 0.061697874 0.75125498
0.11787029 0.062664628 0.75298566
0.12506378 0.065023869 0.7532742
0.13347907 0.065174915 0.75598311
0.015295855 0.074096464 0.75354594
0.12627399 0.072504513 0.75617713
0.13298714 0.072948195 0.75872022
0.0150315 0.080773503 0.75525999
0.021235714 0.088971719 0.7531572
0.086153001 0.089610994 0.75057
0.02489735 0.095906436 0.75292271
0.030503999 0.098950997 0.75057
0.079531625 0.097409375 0.75143123
0.083051629 0.09483733 0.75328553
0.027350347 0.10401162 0.75679624
0.034389172 0.10622024 0.7528578
0.041148167 0.10896 0.750705
0.068931833 0.1086 0.75090832
0.07565669 0.10555173 0.75200099
0.082419515 0.10284571 0.75721443
0.029271999 0.111075 0.75897503
0.035548359 0.11387602 0.75641483
0.044571064 0.11547591 0.75372964
0.054973993 0.11634921 0.75305635
0.065013237 0.11549836 0.75416023
0.072386719 0.11321447 0.75717276
0.019871 0.019432001 0.76063001
0.024475811 0.018332945 0.76643896
0.087082908 0.018031182 0.76909989
0.091692224 0.018212074 0.76686996
0.019528247 0.023377188 0.76071239
0.024502566 0.024586471 0.76544386
0.087102942 0.024905892 0.76749855
0.092594579 0.02395151 0.76220489
0.025193641 0.031691782 0.76829576
0.088209212 0.033854023 0.76716107
0.09019234 0.031785499 0.76056337
0.096625797 0.068403602 0.76761198
0.13774858 0.068905495 0.76072282
0.096967399 0.071323402 0.769054
0.12726176 0.0779083 0.76192528
0.13436691 0.076190457 0.7610361
0.12736644 0.083377697 0.76591796
0.13345772 0.085273646 0.76538235
0.020799248 0.098981872 0.765885
0.12938499 0.0990225 0.769265
0.13302301 0.094197579 0.76920891
0.017551035 0.10618195 0.7687701
0.02259806 0.10583048 0.76392221
0.079508997 0.10947 0.76146501
0.085989706 0.10673264 0.76413995
0.090020001 0.10707 0.76692998
0.1292 0.10008 0.76819998
0.13079667 0.10007999 0.76819998
0.038362205 0.0087161399 0.77570903
0.042048272 0.008919592 0.77556902
0.028402409 0.016343217 0.77210253
0.035403807 0.015374554 0.77494586
0.044022821 0.015136617 0.77803761
0.058615778 0.01345008 0.77967304
0.066259466 0.014942683 0.77867621
0.074930228 0.015287923 0.77567375
0.083276801 0.015284535 0.77213693
0.029196607 0.026179567 0.77144873
0.034708966 0.024664385 0.77608365
0.041838501 0.021586357 0.77943718
0.069508001 0.021691801 0.77949399
0.075688191 0.024570158 0.77663672
0.082044557 0.025203744 0.77238154
0.027269347 0.035376109 0.77435732
0.031609796 0.032840163 0.77855241
0.07836362 0.031605475 0.77830577
0.083810635 0.035019323 0.77483845
0.0261392 0.0411813 0.77814198
0.084407434 0.042203255 0.77742994
0.095974334 0.0683605 0.77434665
0.096595585 0.074874341 0.77584738
0.12466 0.079230003 0.77463001
0.09734498 0.085023925 0.77746409
0.12590522 0.087106436 0.77339405
0.018046571 0.099492431 0.77425998
0.097008333 0.095026977 0.77788728
0.10324895 0.096831411 0.77947581
0.11458357 0.099055402 0.77870572
0.12547795 0.095147096 0.773794
0.13120261 0.09465991 0.7705918
0.01691075 0.1027625 0.77185994
0.12341817 0.1028652 0.77576882
0.048571937 0.018475125 0.78060997
0.054614067 0.016456489 0.78081495
0.062582828 0.017896637 0.78076661
0.038841002 0.028194938 0.78103065
0.045538321 0.025656426 0.7825458
0.055029701 0.025317065 0.78395319
0.064896651 0.02535262 0.78313357
0.071816266 0.028133346 0.78154922
0.029284 0.039352 0.78027999
0.035704304 0.035481013 0.78328288
0.044225935 0.033928167 0.78711313
0.055090949 0.032181423 0.78849488
0.065894142 0.033737339 0.78815013
0.074468844 0.035466511 0.78424543
0.080713779 0.037959225 0.78120887
0.028618818 0.043193772 0.7831673
0.033848092 0.043081015 0.7871154
0.040277999 0.040640999 0.78959
0.077272162 0.043369912 0.78739554
0.081312701 0.044744425 0.78324449
0.079579003 0.050466001 0.78959
0.095663548 0.067414001 0.78309071
0.094521113 0.07545846 0.78260559
0.094590671 0.08407069 0.78251356
0.094823003 0.090327002 0.78027999
0.10535631 0.096422352 0.78037763
0.11183 0.097824991 0.78039002
0.04624112 0.038120262 0.79114842
0.054936588 0.0367008 0.79158157
0.063855164 0.037888989 0.79111695
0.036286548 0.047348604 0.79177153
0.045247041 0.044954233 0.7954188
0.055044696 0.044423439 0.79708397
0.064998724 0.044803083 0.79622364
0.073481113 0.046268541 0.79261428
0.037387002 0.051903699 0.79449189
0.042884815 0.052781202 0.79847574
0.06809105 0.053106662 0.7986812
0.072956972 0.052631591 0.79665464
0.056414496 0.049314603 0.80014199
0.062380999 0.049474999 0.80005002
0.046930037 0.054502372 0.80117464
0.054668557 0.053968716 0.8027336
0.063530318 0.054215293 0.80193108
