# .PCD v0.7 - Point Cloud Data file format
VERSION 0.7
FIELDS x y z
SIZE 4 4 4
TYPE F F F
COUNT 1 1 1
WIDTH 258
HEIGHT 1
VIEWPOINT 0 0 0 1 0 0 0
POINTS 258
DATA ascii
0.032820001 -0.5862208 0.41998753
0.076532505 -0.58381206 0.41672313
0.080656998 -0.5862267 0.41898614
0.036703765 -0.58266038 0.42366853
0.044795267 -0.57983595 0.42461377
0.055470891 -0.57809162 0.42447588
0.065060757 -0.57861036 0.42327073
0.074123159 -0.58196306 0.42352486
0.0390746 -0.58023947 0.42924932
0.045873251 -0.57830989 0.43111727
0.054904006 -0.57719785 0.43167391
0.064096443 -0.57813632 0.43068674
0.071582787 -0.58028328 0.4293226
0.085528001 -0.59388936 0.41297996
0.025312148 -0.59329164 0.42182142
0.030727902 -0.58790213 0.42045826
0.084277056 -0.59133708 0.41825888
0.026987771 -0.58896899 0.42765453
0.03251325 -0.58486426 0.42708331
0.078699201 -0.58346617 0.42674664
0.082117118 -0.58636004 0.42594793
0.028393934 -0.58689928 0.43592501
0.035210695 -0.58245981 0.43595526
0.043864351 -0.57855749 0.43617418
0.055344615 -0.57710373 0.43698704
0.06613341 -0.57886165 0.4362551
0.075071588 -0.58144712 0.43551823
0.081751704 -0.58484787 0.43703878
0.037170086 -0.58124405 0.44403839
0.045211233 -0.57823491 0.44490606
0.054949429 -0.57674438 0.44397944
0.064737089 -0.57836533 0.44504285
0.073564969 -0.58075219 0.44472045
0.083222166 -0.58320069 0.44387853
0.047640603 -0.57799119 0.45214683
0.055332106 -0.57732505 0.45223624
0.062928952 -0.5779807 0.45238429
0.020098999 -0.60883725 0.42244223
0.01785329 -0.60189015 0.42600504
0.021515932 -0.60025036 0.42203626
0.016892575 -0.60079002 0.43174163
0.022923945 -0.59375995 0.43214017
0.025323752 -0.58990163 0.44135571
0.030954165 -0.58544815 0.44243023
0.081109174 -0.58641607 0.44134939
0.027275154 -0.58878255 0.45022959
0.034001354 -0.58399296 0.45003265
0.041272283 -0.58013123 0.45106202
0.06925375 -0.57983226 0.45110178
0.076347314 -0.58190233 0.44944108
0.08209043 -0.58573163 0.45004183
0.036060959 -0.58277249 0.45869857
0.044675082 -0.57913482 0.45807216
0.054804351 -0.57798886 0.45839432
0.065334626 -0.5785197 0.45789391
0.073919855 -0.58141679 0.45823956
0.08357913 -0.58633786 0.45700881
0.039388798 -0.58138901 0.46524996
0.045958366 -0.57853246 0.46724737
0.054967713 -0.57766229 0.46756023
0.064079314 -0.57872921 0.46657425
0.071249798 -0.58104223 0.46536231
0.0079100896 -0.6269334 0.40905973
0.014756849 -0.62903279 0.40722963
0.0083672367 -0.62365496 0.40969115
0.011956333 -0.62319684 0.41416079
0.015161191 -0.61693746 0.42346507
0.020603856 -0.61181962 0.42223722
0.097638622 -0.61752236 0.42439082
0.10123852 -0.61811578 0.424649
0.014787126 -0.61033195 0.42744616
0.096263878 -0.61127657 0.43062311
0.10451882 -0.61338216 0.4324533
0.11387392 -0.60985464 0.4320451
0.121122 -0.60705471 0.43302017
0.013065165 -0.60336995 0.43694139
0.089086518 -0.6025582 0.43724471
0.094856642 -0.60537803 0.4383218
0.10480021 -0.6070686 0.43898791
0.11498155 -0.60526121 0.43785167
0.12355405 -0.60679531 0.43999407
0.013861923 -0.60084164 0.44351879
0.095601402 -0.60433954 0.44537154
0.10346715 -0.60571694 0.44496059
0.11675333 -0.60479885 0.44414884
0.121778 -0.605564 0.44490317
0.024343651 -0.59114873 0.45517379
0.081572004 -0.58850443 0.45688063
0.026516005 -0.58923334 0.46376103
0.031940188 -0.58532995 0.46366644
0.078026779 -0.5862146 0.46512574
0.0830203 -0.58957684 0.4648239
0.027810818 -0.58820039 0.47223598
0.034892689 -0.5837447 0.4720822
0.043260626 -0.57984036 0.47275278
0.055761412 -0.57804286 0.473553
0.065762274 -0.58042884 0.4730885
0.07476522 -0.58512282 0.47325444
0.082554333 -0.59028453 0.47098377
0.037321642 -0.58320528 0.48039612
0.0451947 -0.57992882 0.48122382
0.054896966 -0.57758319 0.47995639
0.064741366 -0.57988626 0.48106915
0.072750866 -0.58337778 0.48108223
0.047432672 -0.57953703 0.48813233
0.05474703 -0.57895595 0.48846948
0.06389194 -0.57974476 0.48793888
0.0084876996 -0.6313535 0.4077121
0.014518845 -0.6326738 0.40861416
0.020637 -0.63714737 0.41431552
0.016411141 -0.62962514 0.41817474
0.0209316 -0.63065082 0.42341834
0.096246682 -0.62977701 0.42057499
0.1007425 -0.62466061 0.41967884
0.016312109 -0.62345809 0.42202047
0.020928165 -0.62702954 0.42362899
0.094658859 -0.6242438 0.42462757
0.10121701 -0.62195069 0.42198128
0.011045001 -0.6168142 0.42955366
0.093464337 -0.61858261 0.42951918
0.10385416 -0.61640048 0.43029031
0.12769499 -0.61781514 0.44011846
0.12805273 -0.61203218 0.44161013
0.13255525 -0.61300564 0.44462109
0.013443173 -0.60725117 0.45493805
0.098334625 -0.60571331 0.44794944
0.10225063 -0.60683429 0.44714966
0.11787029 -0.60779905 0.44888145
0.12506378 -0.60680521 0.45104051
0.13347907 -0.6090309 0.4525921
0.015295855 -0.60227036 0.45890319
0.12627399 -0.60534555 0.45893079
0.13298714 -0.60727638 0.46064425
0.0150315 -0.60022134 0.4654851
0.021235714 -0.59412533 0.47135639
0.086153001 -0.59158802 0.47054121
0.02489735 -0.5902828 0.47713396
0.030503999 -0.58668149 0.47848865
0.079531625 -0.58822417 0.4776293
0.083051629 -0.5911532 0.47641486
0.027350347 -0.58932102 0.48606557
0.034389172 -0.58480948 0.4858759
0.041148167 -0.58153844 0.48707628
0.068931833 -0.58190054 0.48687676
0.07565669 -0.58443165 0.48485696
0.082419515 -0.59028935 0.48529315
0.029271999 -0.58746439 0.49322036
0.035548359 -0.5838145 0.49425882
0.044571064 -0.58068919 0.49420959
0.054973993 -0.5796575 0.49459898
0.065013237 -0.58104378 0.49445489
0.072386719 -0.58480692 0.49409407
0.019871 -0.63701469 0.4161104
0.024475811 -0.64253491 0.41822681
0.087082908 -0.6449576 0.41936785
0.091692224 -0.64296514 0.41835037
0.019528247 -0.63501233 0.41951066
0.024502566 -0.63840306 0.42302519
0.087102942 -0.63998359 0.42437637
0.092594579 -0.63598055 0.4207834
0.025193641 -0.63709718 0.43056929
0.088209212 -0.63499582 0.43181306
0.09019234 -0.63046843 0.42658702
0.096625797 -0.61722982 0.46144828
0.13774858 -0.61110419 0.45825633
0.096967399 -0.61692297 0.46469027
0.12726176 -0.60739797 0.4665485
0.13436691 -0.60754377 0.4646197
0.12736644 -0.60792214 0.47329989
0.13345772 -0.60647041 0.47463182
0.020799248 -0.59969687 0.48656023
0.12938499 -0.60255158 0.48837039
0.13302301 -0.60503846 0.48423538
0.017551035 -0.59836948 0.49420241
0.02259806 -0.59442902 0.49135664
0.079508997 -0.59042627 0.49316269
0.085989706 -0.59414035 0.49223867
0.090020001 -0.5963372 0.4939914
0.1292 -0.60108984 0.48871076
0.13079667 -0.60108984 0.48871073
0.038362205 -0.65547478 0.41491359
0.042048272 -0.65524876 0.41501313
0.028402409 -0.64839929 0.41950893
0.035403807 -0.65132755 0.42017835
0.044022821 -0.65408331 0.42160004
0.058615778 -0.65636092 0.42102408
0.066259466 -0.65472865 0.42177048
0.074930228 -0.65199244 0.42048699
0.083276801 -0.64898473 0.41862616
0.029196607 -0.64267576 0.42753524
0.034708966 -0.64741558 0.42868078
0.041838501 -0.65188605 0.42782339
0.069508001 -0.65187901 0.42794293
0.075688191 -0.64793563 0.42889115
0.082044557 -0.64398205 0.42719495
0.027269347 -0.64031953 0.43688858
0.031609796 -0.64522129 0.4369345
0.07836362 -0.64566004 0.4357543
0.083810635 -0.64091635 0.4368377
0.0261392 -0.64049029 0.44381636
0.084407434 -0.63934755 0.44431192
0.095974334 -0.62298304 0.46494949
0.096595585 -0.62083817 0.47128052
0.12466 -0.61751413 0.47434723
0.09734498 -0.61688203 0.48076612
0.12590522 -0.61232483 0.48040006
0.018046571 -0.60655493 0.49139422
0.097008333 -0.61198723 0.48950008
0.10324895 -0.61239105 0.49186996
0.11458357 -0.61056745 0.49335781
0.12547795 -0.60844117 0.48745197
0.13120261 -0.60597235 0.48535523
0.01691075 -0.60279495 0.49291596
0.12341817 -0.60606706 0.49505675
0.048571937 -0.65451837 0.4257921
0.054614067 -0.65575325 0.42418212
0.062582828 -0.65495557 0.42538214
0.038841002 -0.64977032 0.43428373
0.045538321 -0.6523931 0.43291965
0.055029701 -0.65376896 0.4333702
0.064896651 -0.65305281 0.43296987
0.071816266 -0.65024388 0.43450373
0.029284 -0.64327049 0.44338298
0.035704304 -0.64785916 0.4416666
0.044225935 -0.65193409 0.44235742
0.055090949 -0.65402746 0.44159698
0.065894142 -0.65291673 0.44273978
0.074468844 -0.64868587 0.44215992
0.080713779 -0.64479256 0.44268581
0.028618818 -0.64370918 0.44816872
0.033848092 -0.64712787 0.45014679
0.040277999 -0.65051532 0.44937053
0.077272162 -0.64721447 0.4505398
0.081312701 -0.64296025 0.44952872
0.079579003 -0.64535403 0.45773065
0.095663548 -0.63092059 0.46873754
0.094521113 -0.62628186 0.47532779
0.094590671 -0.62167937 0.4826076
0.094823003 -0.61649221 0.48675779
0.10535631 -0.61337328 0.49199563
0.11183 -0.612647 0.49319565
0.04624112 -0.65316552 0.4480443
0.054936588 -0.65427983 0.44706401
0.063855164 -0.65326029 0.447831
0.036286548 -0.64884794 0.45622408
0.045247041 -0.65320921 0.45610267
0.055044696 -0.65490496 0.4565258
0.064998724 -0.65397346 0.45639688
0.073481113 -0.65013242 0.45574775
0.037387002 -0.6487698 0.46152908
0.042884815 -0.65169871 0.46436855
0.06809105 -0.65170258 0.46475342
0.072956972 -0.65022773 0.46328458
0.056414496 -0.65493762 0.46229413
0.062380999 -0.65477508 0.46238232
0.046930037 -0.65309107 0.46725088
0.054668557 -0.6546979 0.46761575
0.063530318 -0.65388548 0.46740401
