# .PCD v0.7 - Point Cloud Data file format
VERSION 0.7
FIELDS x y z
SIZE 4 4 4
TYPE F F F
COUNT 1 1 1
WIDTH 215
HEIGHT 1
VIEWPOINT 0 0 0 1 0 0 0
POINTS 215
DATA ascii
-0.1901 -1.7944109 0.62538648
-0.19035 -1.7958133 0.62787402
-0.20879167 -1.7650524 0.67452705
-0.2084125 -1.7608488 0.68034452
-0.19267 -1.7998594 0.6282683
-0.191558 -1.8012254 0.63414633
-0.210848 -1.7785914 0.66985631
-0.20881 -1.7789431 0.67404568
-0.21299288 -1.773705 0.67845088
-0.20870666 -1.7715787 0.67328346
-0.21143001 -1.768429 0.68631709
-0.20893499 -1.7626747 0.68611979
-0.21440092 -1.8126082 0.63355029
-0.20527233 -1.8140599 0.63346171
-0.19714749 -1.8144575 0.63336724
-0.1935475 -1.8085583 0.63935322
-0.17682999 -1.8049253 0.65118659
-0.21773 -1.7987896 0.66112512
-0.21503052 -1.7915832 0.6655342
-0.20975 -1.7931041 0.66716182
-0.19129571 -1.795429 0.66656846
-0.2152725 -1.7862586 0.67309439
-0.2093 -1.7857451 0.67154634
-0.216364 -1.7819546 0.67887592
-0.21131 -1.7725661 0.69408333
-0.22026999 -1.8180325 0.63966417
-0.21638443 -1.8172184 0.63780999
-0.20453601 -1.817579 0.63849568
-0.1978825 -1.8191741 0.63905263
-0.22075 -1.8189582 0.64608359
-0.21516125 -1.8186882 0.64509881
-0.2046853 -1.818446 0.64427394
-0.1961709 -1.8167387 0.6458441
-0.21876 -1.8130536 0.65515286
-0.1923418 -1.8110619 0.65322191
-0.184598 -1.8121582 0.65808821
-0.17951 -1.811295 0.65552652
-0.22057 -1.8056462 0.66467667
-0.21491124 -1.8061066 0.66331249
-0.20515639 -1.8057714 0.6653735
-0.19415224 -1.805279 0.66283917
-0.18516408 -1.8072391 0.6632213
-0.17930333 -1.8079159 0.66347468
-0.22039001 -1.8005618 0.6699428
-0.21161665 -1.7996833 0.66621327
-0.20429422 -1.7992585 0.67047632
-0.19615702 -1.7987628 0.67090523
-0.18538155 -1.7988763 0.67002714
-0.17892399 -1.8006994 0.66876781
-0.22026999 -1.7959821 0.67538083
-0.20487116 -1.7957309 0.67979312
-0.19526801 -1.7973849 0.68023533
-0.18663949 -1.7975662 0.68036902
-0.20725334 -1.7928731 0.68619096
-0.17771 -1.7934242 0.68777299
-0.22116999 -1.8192893 0.65228617
-0.21458077 -1.8212576 0.64985913
-0.20580201 -1.8210245 0.65046489
-0.19863428 -1.8220417 0.65065622
-0.22192501 -1.8239849 0.65705371
-0.21560498 -1.8208281 0.65886748
-0.20515522 -1.8201928 0.65856946
-0.19786845 -1.8182296 0.65819061
-0.18718667 -1.8161951 0.65729797
-0.214066 -1.8152704 0.66473508
-0.20570898 -1.814378 0.6642006
-0.19814 -1.8136908 0.66333449
-0.18196 -1.8043544 0.67647737
-0.18000001 -1.8043544 0.67647737
-0.19273999 -1.7986861 0.68565863
-0.18346715 -1.8012201 0.68367553
-0.18000001 -1.8007486 0.68231797
-0.20530294 -1.7989582 0.69220531
-0.19472295 -1.799409 0.69031012
-0.18517421 -1.7996911 0.69240606
-0.17844333 -1.7976438 0.69559604
-0.209694 -1.7929071 0.69996834
-0.21474834 -1.8287687 0.6637404
-0.21479 -1.8245305 0.66854346
-0.20429859 -1.8048187 0.69941139
-0.19505835 -1.803429 0.698874
-0.18172 -1.8037035 0.69897872
-0.20435433 -1.8013616 0.70671749
-0.1950269 -1.8006115 0.70690691
-0.18512999 -1.7993276 0.70578265
-0.17905168 -1.799148 0.70553273
-0.2038575 -1.8009945 0.71409035
-0.1962225 -1.801172 0.71442175
-0.18477 -1.8014845 0.71435761
-0.1795 -1.8000249 0.71318614
-0.21016499 -1.8092347 0.71578127
-0.20972998 -1.8080639 0.71006358
-0.21182667 -1.8094904 0.72114146
-0.20439477 -1.8065223 0.7219795
-0.19446349 -1.8062706 0.72228593
-0.18636797 -1.8061812 0.72151387
-0.18000001 -1.803898 0.7168113
-0.20363501 -1.8061286 0.72823656
-0.19765499 -1.8061286 0.72823656
-0.18471999 -1.8061286 0.72823656
-0.21182857 -1.8113346 0.7264123
-0.2089 -1.8097131 0.72757018
-0.19295 -1.8102359 0.72672355
-0.18352501 -1.8131962 0.72614789
-0.211696 -1.8106953 0.73306072
-0.20509237 -1.8091609 0.73384035
-0.19548 -1.8095638 0.7328887
-0.187628 -1.8105372 0.73129916
-0.182565 -1.8201579 0.73230559
-0.21271142 -1.8127108 0.73941183
-0.2060125 -1.8115926 0.7397542
-0.19399001 -1.8140972 0.74023235
-0.18730141 -1.8176231 0.73806286
-0.2119925 -1.8105848 0.74749076
-0.20436656 -1.8121381 0.74861938
-0.19615826 -1.8137283 0.74838877
-0.21242376 -1.8065162 0.7550447
-0.20364545 -1.8097224 0.75726843
-0.19791 -1.8107892 0.75647521
-0.21235999 -1.8044049 0.76167685
-0.2026 -1.8048084 0.76616275
-0.2031025 -1.7974198 0.77813065
-0.197575 -1.7974198 0.77813065
-0.19724 -1.7882687 0.79295337
-0.18302 -1.8278395 0.73913693
-0.18714499 -1.8248389 0.74597228
-0.19285832 -1.818293 0.75331503
-0.18883002 -1.8250555 0.75233954
-0.21115749 -1.8129134 0.76202911
-0.20551266 -1.8115897 0.76168901
-0.19466092 -1.813948 0.76187181
-0.18959002 -1.8202636 0.76187778
-0.21122999 -1.8108978 0.76657861
-0.20513548 -1.8083262 0.76981837
-0.19564682 -1.8105915 0.77038896
-0.20447707 -1.8026464 0.77783936
-0.1948991 -1.8032671 0.77848846
-0.20400682 -1.7981764 0.78692394
-0.19525166 -1.7980833 0.78693086
-0.20295501 -1.7943932 0.79548573
-0.19602935 -1.7929561 0.79532313
-0.18959001 -1.7990302 0.79627132
-0.18379 -1.8344859 0.74398065
-0.18512499 -1.8345103 0.75046086
-0.18786545 -1.8278865 0.75894499
-0.19013 -1.8210552 0.77087504
-0.18718232 -1.82341 0.76752949
-0.2101 -1.8137515 0.77756584
-0.192748 -1.8156376 0.77553833
-0.21024498 -1.8112833 0.78413343
-0.19025999 -1.8122364 0.78782439
-0.18986 -1.8105627 0.78273082
-0.21048999 -1.8091418 0.79194874
-0.20807 -1.8036494 0.79392868
-0.190532 -1.8074453 0.79295796
-0.20677374 -1.8015546 0.80122483
-0.19188 -1.8025883 0.7956475
-0.18986 -1.8025883 0.7956475
-0.18294601 -1.8408545 0.75784075
-0.18370418 -1.8368598 0.76245564
-0.18385799 -1.8289914 0.77075529
-0.19086249 -1.8244152 0.77994788
-0.18674167 -1.828387 0.77927291
-0.19066 -1.8198578 0.78347468
-0.18841 -1.8264948 0.78852409
-0.21099 -1.8107829 0.79817402
-0.18943 -1.819706 0.79952061
-0.2112125 -1.8094739 0.80419683
-0.20857334 -1.8077883 0.80822814
-0.18829599 -1.8124611 0.8048594
-0.20615 -1.8085523 0.81225693
-0.18331 -1.8098762 0.81544244
-0.18641375 -1.8319693 0.78565311
-0.18572885 -1.8272034 0.79507452
-0.18510649 -1.8243401 0.80173278
-0.21160334 -1.8152795 0.81379712
-0.18765999 -1.8140633 0.81399035
-0.211915 -1.8194287 0.81862485
-0.20748445 -1.8131735 0.8207615
-0.19137286 -1.8148476 0.82261884
-0.18787833 -1.8145953 0.81757039
-0.21104001 -1.815322 0.82794178
-0.20631909 -1.8116541 0.82952136
-0.19152714 -1.8124702 0.82951534
-0.18614145 -1.8104451 0.83051056
-0.19256 -1.8056194 0.84365797
-0.18602081 -1.8071692 0.8402586
-0.19256 -1.8029219 0.84802735
-0.18616712 -1.8016255 0.84822261
-0.1805 -1.8362484 0.79937565
-0.21255875 -1.8222424 0.82548898
-0.211565 -1.8171809 0.83440125
-0.20487501 -1.8166078 0.83525801
-0.19576584 -1.817839 0.83282745
-0.21183999 -1.815765 0.84162843
-0.20659749 -1.8138593 0.84299821
-0.19493136 -1.8135369 0.84233177
-0.18804334 -1.8110522 0.84018785
-0.2067 -1.8106555 0.8500824
-0.19421268 -1.8075415 0.85133183
-0.18873 -1.8027749 0.85359526
-0.19407666 -1.8054274 0.86014926
-0.187381 -1.803157 0.85899156
-0.21431001 -1.8256885 0.83266115
-0.20193 -1.8213511 0.83968675
-0.19779666 -1.821893 0.83880889
-0.21224999 -1.8164691 0.8475945
-0.202104 -1.8185967 0.84746015
-0.19986001 -1.8164691 0.8475945
-0.21175286 -1.815884 0.85558569
-0.20431648 -1.8150243 0.85833293
-0.19926199 -1.8143296 0.85543799
-0.21163 -1.8132405 0.86653006
-0.20485589 -1.8123434 0.86590058
-0.19580801 -1.8102981 0.8630724
