# .PCD v0.7 - Point Cloud Data file format
VERSION 0.7
FIELDS x y z
SIZE 4 4 4
TYPE F F F
COUNT 1 1 1
WIDTH 468
HEIGHT 1
VIEWPOINT 0 0 0 1 0 0 0
POINTS 468
DATA ascii
-0.1901 -0.41049999 1.8554
-0.19035 -0.40911999 1.8579
-0.20879167 -0.35326335 1.8562332
-0.20841248 -0.34610501 1.8557124
-0.19267 -0.41091001 1.86155
-0.191558 -0.40662599 1.8657999
-0.210848 -0.36434999 1.8652999
-0.20881 -0.36096999 1.8678
-0.21299286 -0.35447001 1.8656571
-0.20870666 -0.35774997 1.8611332
-0.21143001 -0.34500501 1.8653001
-0.20893499 -0.34215 1.8602999
-0.2144009 -0.41311273 1.8751725
-0.20527233 -0.41395074 1.8763614
-0.19714749 -0.41424 1.87665
-0.1935475 -0.40604752 1.8747751
-0.17682999 -0.39407 1.8779
-0.21773 -0.38238999 1.8779
-0.21503057 -0.37485263 1.8740845
-0.20975 -0.37426665 1.8762335
-0.19129571 -0.37599283 1.8779
-0.21527253 -0.36562252 1.873525
-0.20930001 -0.36667001 1.872275
-0.216364 -0.35844201 1.8729
-0.21131 -0.34057 1.8729
-0.22026999 -0.41075999 1.883
-0.21638446 -0.41190997 1.8813335
-0.20453599 -0.41151595 1.882
-0.1978825 -0.41188002 1.8836499
-0.22075 -0.40578398 1.8871599
-0.21516125 -0.40648004 1.8864124
-0.20468532 -0.40705469 1.8857734
-0.19617091 -0.40482184 1.8851453
-0.21876 -0.39496499 1.8868999
-0.1923418 -0.39556181 1.884191
-0.184598 -0.39199704 1.8876801
-0.17951 -0.39372334 1.8856
-0.22057 -0.38296998 1.8856001
-0.21491124 -0.3843725 1.8852751
-0.20515634 -0.38244274 1.8860725
-0.19415224 -0.38434049 1.8843223
-0.18516411 -0.38504493 1.8861909
-0.17930333 -0.385185 1.8868999
-0.22039001 -0.37581801 1.8840401
-0.21161665 -0.37853003 1.8813334
-0.2042942 -0.37467927 1.8832113
-0.19615701 -0.37405404 1.8830147
-0.18538155 -0.37486073 1.8826503
-0.17892401 -0.37689 1.8835399
-0.22026999 -0.36878502 1.883
-0.20487116 -0.36489841 1.8851037
-0.19526798 -0.36539119 1.8867437
-0.18663947 -0.36537263 1.8869683
-0.20725334 -0.35795334 1.8860334
-0.17771 -0.35689667 1.8873334
-0.22116999 -0.40068001 1.8907
-0.21458079 -0.40377918 1.8910998
-0.20580199 -0.40314132 1.8912199
-0.19863428 -0.4035129 1.8921858
-0.22192501 -0.39908999 1.8972
-0.21560498 -0.39588833 1.8954667
-0.20515521 -0.39580822 1.8947695
-0.19786845 -0.39509928 1.8928999
-0.18718667 -0.39479002 1.8907
-0.214066 -0.38797599 1.89382
-0.20570901 -0.38796204 1.8927801
-0.19814 -0.388338 1.8917401
-0.18196 -0.37225002 1.8907
-0.18000001 -0.37225002 1.8907
-0.19273999 -0.36146 1.8907
-0.18346713 -0.36447859 1.8918142
-0.18000001 -0.36538601 1.8907
-0.20530295 -0.35603234 1.8943706
-0.19472292 -0.35788178 1.8937591
-0.18517424 -0.35624659 1.8950999
-0.17844333 -0.35245666 1.8950332
-0.209694 -0.34624797 1.8933001
-0.21474832 -0.39591333 1.9047834
-0.21479 -0.38960001 1.9037
-0.20429857 -0.35297927 1.9031428
-0.19505835 -0.35270667 1.9016778
-0.18172 -0.35276166 1.9019667
-0.20435435 -0.3449465 1.9040395
-0.19502693 -0.34439117 1.9035004
-0.18513002 -0.34467342 1.9018176
-0.17905168 -0.34479165 1.9015335
-0.2038575 -0.33848 1.9076
-0.1962225 -0.33829126 1.907925
-0.18477 -0.33850998 1.9081571
-0.1795 -0.33873999 1.9062999
-0.21016499 -0.34136999 1.9154999
-0.20972998 -0.34562001 1.9115
-0.21182667 -0.3369433 1.9185333
-0.2043948 -0.33467084 1.9164479
-0.19446349 -0.33427805 1.9163948
-0.186368 -0.33488798 1.9159129
-0.18000001 -0.33769 1.9115
-0.20363501 -0.32914001 1.9194
-0.19765499 -0.32914001 1.9194
-0.18471999 -0.32914001 1.9194
-0.21182859 -0.33342713 1.9228715
-0.2089 -0.33159 1.9220999
-0.19295 -0.33258498 1.9220999
-0.18352501 -0.33463001 1.9243168
-0.211696 -0.327434 1.92582
-0.20509236 -0.32596466 1.9249237
-0.19548 -0.32698596 1.9247668
-0.187628 -0.32884997 1.9247601
-0.182565 -0.33304748 1.933475
-0.21271144 -0.32308859 1.9308714
-0.2060125 -0.32221001 1.9300997
-0.19398999 -0.32311887 1.9324821
-0.18730143 -0.32681713 1.934343
-0.21199252 -0.31509751 1.9333063
-0.20436655 -0.31495309 1.935221
-0.19615823 -0.31598464 1.936453
-0.21242374 -0.3065325 1.9338126
-0.20364545 -0.30632451 1.9377091
-0.19791 -0.30756 1.9382
-0.21235999 -0.29978001 1.9355
-0.2026 -0.296175 1.9382
-0.2031025 -0.28210998 1.9382
-0.197575 -0.28211001 1.9382
-0.19724 -0.26469001 1.9382
-0.18302 -0.33127001 1.9436001
-0.18714499 -0.32387748 1.9446375
-0.19285832 -0.31419086 1.9429251
-0.18883002 -0.31857336 1.9481667
-0.21115749 -0.30395001 1.9429251
-0.20551269 -0.30354401 1.9416202
-0.19466092 -0.30462727 1.9437226
-0.18959002 -0.30794001 1.9491
-0.21122999 -0.29901999 1.9436001
-0.20513545 -0.29491231 1.9431134
-0.19564681 -0.29561681 1.9453411
-0.20447706 -0.2851035 1.9424945
-0.19489908 -0.28487727 1.9433637
-0.20400685 -0.27502528 1.9434633
-0.19525164 -0.27497044 1.9433875
-0.20295502 -0.26575249 1.9447417
-0.19602935 -0.26513597 1.9434336
-0.18959001 -0.26752001 1.9491
-0.18379 -0.33063999 1.9518
-0.18512499 -0.32513875 1.955225
-0.18786545 -0.31443998 1.9540455
-0.19013 -0.30070001 1.9545
-0.18718232 -0.30478382 1.9547462
-0.2101 -0.29117 1.9518
-0.192748 -0.29388601 1.9523399
-0.21024498 -0.28428501 1.95315
-0.19025999 -0.281645 1.9559
-0.18986 -0.28510001 1.9518
-0.21048999 -0.27651 1.9554332
-0.20807 -0.27193999 1.9518
-0.190532 -0.27476001 1.95452
-0.20677376 -0.26463124 1.9538502
-0.19188 -0.26991999 1.9518
-0.18986 -0.26991999 1.9518
-0.18294601 -0.32219201 1.9645001
-0.18370415 -0.31616667 1.9635248
-0.18385801 -0.30497101 1.96119
-0.19086251 -0.294745 1.9621251
-0.18674165 -0.29740581 1.9651499
-0.19066 -0.28935 1.9601001
-0.18841 -0.28854001 1.9684
-0.21099 -0.272075 1.9601001
-0.18943 -0.27561668 1.9684
-0.2112125 -0.2662625 1.9621501
-0.20857334 -0.26194668 1.9628334
-0.18829601 -0.267268 1.96504
-0.20615 -0.25891998 1.9656
-0.18331 -0.25690502 1.9684
-0.18641376 -0.29385877 1.97155
-0.18572886 -0.28333831 1.9724439
-0.18510646 -0.27616882 1.9735054
-0.21160334 -0.26114333 1.9721333
-0.18765999 -0.26034001 1.9712
-0.211915 -0.259215 1.9782
-0.20748445 -0.25411114 1.9739999
-0.19137287 -0.25341001 1.9764
-0.18787836 -0.25757334 1.9735333
-0.21104001 -0.24913 1.9796
-0.20631909 -0.2458591 1.9773088
-0.19152714 -0.24629286 1.9779999
-0.1861414 -0.24438217 1.9767996
-0.19256 -0.23066001 1.9796
-0.18602084 -0.23436666 1.979133
-0.19256 -0.22552499 1.9796
-0.18616714 -0.22467785 1.9785995
-0.21309 -0.1116 1.9796
-0.21270375 -0.10665625 1.97365
-0.1805 -0.28443 1.9823999
-0.21255875 -0.2548525 1.9842
-0.211565 -0.24461 1.984575
-0.20487502 -0.24358 1.9845375
-0.19576585 -0.24629502 1.9843082
-0.21183999 -0.23771667 1.9871668
-0.20659749 -0.23554997 1.9862648
-0.19493136 -0.23594771 1.9856408
-0.18804334 -0.23646666 1.9823999
-0.20670001 -0.22783899 1.9872601
-0.19421266 -0.22514001 1.9852666
-0.18873 -0.22070999 1.9823999
-0.19407666 -0.21652667 1.9881001
-0.187381 -0.21631899 1.9855598
-0.231365 -0.16143501 1.9867001
-0.22844 -0.16361 1.9881001
-0.21477 -0.115342 1.98754
-0.20987999 -0.11208 1.9881001
-0.20928 -0.1097 1.9823999
-0.21431001 -0.25055999 1.9909
-0.20193 -0.24230333 1.9909
-0.19779666 -0.24333501 1.9909
-0.21224999 -0.23300999 1.9909
-0.202104 -0.23424201 1.9926401
-0.19986001 -0.23300999 1.9909
-0.21175286 -0.22590284 1.9946002
-0.20431648 -0.22311354 1.995312
-0.19926199 -0.22521201 1.9932001
-0.21162999 -0.21520168 1.9981002
-0.20485589 -0.21526587 1.9970059
-0.19580801 -0.21659799 1.9937801
-0.23236001 -0.16420001 1.99525
-0.22909001 -0.16615 1.9938
-0.21484999 -0.121315 1.9959252
-0.21302399 -0.116978 1.9943602
-0.21617 -0.23191001 2.0081999
-0.213625 -0.22362001 2.00385
-0.20309 -0.22086 2.0023999
-0.21446286 -0.21413429 2.0061283
-0.20490375 -0.21229751 2.0049374
-0.19893999 -0.21047001 2.0023999
-0.21284202 -0.20650402 2.0081999
-0.2050781 -0.20495094 2.0064046
-0.19761498 -0.20314102 2.0058799
-0.20457144 -0.19591144 2.0081999
-0.19587 -0.195465 2.0081999
-0.23074999 -0.17151999 2.0081999
-0.22867 -0.17151999 2.0081999
-0.23342168 -0.16772334 2.0043333
-0.224722 -0.165958 2.0064597
-0.21825001 -0.16111 2.0081999
-0.22023332 -0.15686333 2.0072334
-0.21825001 -0.15902001 2.0081999
-0.22012667 -0.14639001 2.0062666
-0.218064 -0.14432201 2.0064597
-0.213625 -0.124395 2.00385
-0.21170001 -0.1172 2.0053
-0.20892668 -0.11166333 2.0053
-0.21935999 -0.2341325 2.01845
-0.21727999 -0.22428802 2.0146
-0.22266749 -0.21336 2.0199001
-0.21808499 -0.21507333 2.0130498
-0.27189001 -0.20184 2.0199001
-0.22317538 -0.20504001 2.0165231
-0.21591061 -0.20442374 2.0118253
-0.20814 -0.20443666 2.0111001
-0.38080001 -0.19765 2.0199001
-0.37871 -0.19765 2.0199001
-0.31273001 -0.19137 2.0199001
-0.30540001 -0.19137 2.0199001
-0.29461125 -0.19316375 2.0195377
-0.27189001 -0.19973999 2.0199001
-0.22456153 -0.194572 2.0162249
-0.21472318 -0.19499883 2.0141282
-0.20486572 -0.19380285 2.0125501
-0.19844002 -0.19427332 2.0114222
-0.31406999 -0.187268 2.0163801
-0.30617866 -0.18591334 2.0167735
-0.29499808 -0.18438002 2.0176761
-0.28863999 -0.18088999 2.0199001
-0.23358285 -0.18418428 2.0199001
-0.22546604 -0.1848032 2.0168519
-0.21510561 -0.1848872 2.0178118
-0.20456357 -0.18480921 2.0169756
-0.19718701 -0.184755 2.0163801
-0.30457163 -0.17694832 2.0167248
-0.29480901 -0.17523298 2.0162351
-0.28738376 -0.17395875 2.0184376
-0.24249402 -0.17204399 2.01932
-0.23435272 -0.17488275 2.0164454
-0.22508255 -0.175234 2.0162349
-0.2150348 -0.17480782 2.0180087
-0.20569731 -0.17404938 2.0198998
-0.19613169 -0.17565499 2.0199001
-0.29392999 -0.16984665 2.0130332
-0.24360999 -0.16727999 2.0199001
-0.23864 -0.1688225 2.0132749
-0.22275779 -0.16708776 2.0133777
-0.21474144 -0.16545524 2.0152762
-0.20658535 -0.16490768 2.0194535
-0.22065 -0.15195501 2.0111001
-0.21467586 -0.15523542 2.0153873
-0.20615609 -0.15556669 2.0189333
-0.19194166 -0.15506001 2.0199001
-0.22113499 -0.141835 2.0155001
-0.21440497 -0.14666 2.0182428
-0.20554999 -0.14681463 2.0187845
-0.19089667 -0.14877333 2.0199001
-0.21747623 -0.1334725 2.0154998
-0.21331666 -0.12467334 2.0140333
-0.21122666 -0.11771667 2.0140333
-0.20755 -0.1136225 2.0155001
-0.22226 -0.23814 2.0258
-0.22096999 -0.22494 2.0267668
-0.21984001 -0.226255 2.0228
-0.27518001 -0.21114001 2.0287001
-0.22466286 -0.21473001 2.0257571
-0.38172665 -0.20232999 2.0248001
-0.37962666 -0.20232999 2.0248001
-0.29284501 -0.201525 2.0272501
-0.28521463 -0.20217538 2.0264616
-0.27571574 -0.20324428 2.0249288
-0.26670998 -0.20070499 2.0243001
-0.23083501 -0.201525 2.0272501
-0.22856501 -0.20137501 2.0257502
-0.37693501 -0.19591667 2.0272334
-0.31370777 -0.19352445 2.0254335
-0.30456501 -0.19427834 2.0247834
-0.29485703 -0.19550601 2.0237002
-0.28502262 -0.1943991 2.0259087
-0.27483037 -0.19423123 2.0261457
-0.26686728 -0.19524544 2.0265729
-0.24579282 -0.1945976 2.0275953
-0.23544645 -0.19510177 2.0254178
-0.22823 -0.19794001 2.0228
-0.32140249 -0.185555 2.0250249
-0.31843001 -0.18745001 2.0228
-0.29325747 -0.18797499 2.0228
-0.28531852 -0.18518285 2.0253575
-0.27482098 -0.18501854 2.0260849
-0.26755711 -0.18371142 2.0278714
-0.25624999 -0.18167999 2.0287001
-0.24492282 -0.18515953 2.0262048
-0.23659536 -0.18593922 2.0239542
-0.19495 -0.18142 2.0258
-0.31158999 -0.17564666 2.0238001
-0.30794001 -0.17486 2.0228
-0.28389922 -0.17615461 2.0228002
-0.27290499 -0.1786 2.02355
-0.26848 -0.17931999 2.0258
-0.25554666 -0.17607333 2.0287001
-0.24611048 -0.17597684 2.0254529
-0.2377575 -0.178075 2.02355
-0.203897 -0.17570201 2.0228002
-0.19632457 -0.17383637 2.024164
-0.24710999 -0.16752 2.0228
-0.2018975 -0.16528001 2.0243001
-0.19605106 -0.16473421 2.0245266
-0.20186 -0.15578333 2.0247998
-0.19705667 -0.15515999 2.0258002
-0.21400167 -0.14207 2.0238001
-0.20455749 -0.14394082 2.0255251
-0.19489627 -0.14628814 2.0265062
-0.215716 -0.13665701 2.02546
-0.2059714 -0.13805144 2.0278714
-0.19103 -0.13856 2.0287001
-0.21231571 -0.12557857 2.0253427
-0.20816 -0.12338001 2.0287001
-0.20631431 -0.11657571 2.0253427
-0.2251275 -0.22498375 2.0350752
-0.275985 -0.21492 2.0346999
-0.23151001 -0.21265501 2.0331998
-0.2272125 -0.21731499 2.03245
-0.37850165 -0.20341833 2.0356998
-0.29286 -0.20543 2.0346999
-0.28696001 -0.20640501 2.0339499
-0.277895 -0.20844001 2.0331998
-0.24310499 -0.20106 2.0331998
-0.23566999 -0.20241332 2.0326998
-0.22945666 -0.20743668 2.0336998
-0.37694398 -0.19662198 2.0353
-0.32255998 -0.19145668 2.0356998
-0.30529499 -0.19894999 2.0331998
-0.26345414 -0.19295414 2.0329502
-0.25547054 -0.19391473 2.0324059
-0.24398001 -0.1988 2.0316999
-0.23379 -0.1991 2.0346999
-0.32560334 -0.18765999 2.0326998
-0.26428553 -0.18698889 2.0330334
-0.2548106 -0.18589064 2.0330126
-0.25361139 -0.1777357 2.0316999
-0.250485 -0.16837999 2.0331998
-0.20083 -0.14079 2.0356998
-0.19727571 -0.14239857 2.0342712
-0.21175365 -0.13549818 2.0330637
-0.20524499 -0.13407099 2.0341001
-0.1928 -0.136602 2.0341001
-0.1860625 -0.13600001 2.0376999
-0.210425 -0.12832001 2.0331998
-0.20560665 -0.12557082 2.0342
-0.20262 -0.11769 2.0353
-0.22813 -0.22719 2.0406001
-0.27932 -0.21693 2.0436001
-0.23024 -0.21449 2.0406001
-0.37383997 -0.20500875 2.0463061
-0.36941001 -0.202685 2.0497
-0.235165 -0.20344999 2.0466499
-0.37333921 -0.19639917 2.0469248
-0.324866 -0.19458202 2.0448399
-0.37206665 -0.18913667 2.0487001
-0.33458799 -0.18929 2.0472999
-0.32969999 -0.18697999 2.0406001
-0.20174375 -0.13350749 2.0440125
-0.19520628 -0.13344683 2.0445843
-0.18651624 -0.1328125 2.0455375
-0.20173284 -0.12453715 2.042757
-0.195963 -0.12644801 2.0472798
-0.18875 -0.1283 2.0497
-0.20062 -0.11927 2.0406001
-0.19711 -0.118645 2.0482001
-0.37384498 -0.21296 2.0565
-0.23621 -0.21394999 2.0557001
-0.37106001 -0.20998999 2.0588
-0.36890504 -0.20461166 2.0547168
-0.23621 -0.20755 2.0557001
-0.37167799 -0.19257601 2.05512
-0.36898428 -0.19567144 2.0557427
-0.34296668 -0.19059335 2.0567334
-0.33576 -0.19433999 2.0557399
-0.32787001 -0.19689 2.0557001
-0.36996001 -0.18809 2.0527
-0.35824999 -0.18651332 2.0588
-0.3425425 -0.1876975 2.0542002
-0.18477499 -0.13062 2.0527
-0.19567899 -0.12311699 2.0554202
-0.18611251 -0.12814751 2.0557251
-0.19755 -0.11785 2.0527
-0.18491 -0.11474 2.0542002
-0.37336999 -0.21444751 2.0656748
-0.23691 -0.21315666 2.0618
-0.36627999 -0.20092334 2.0680001
-0.34055001 -0.20235001 2.0680001
-0.33518499 -0.20128 2.0680001
-0.36584902 -0.19601899 2.0667601
-0.35625798 -0.193149 2.06583
-0.34467921 -0.19545417 2.0648999
-0.33456501 -0.1987675 2.0641251
-0.32826 -0.19991 2.0648999
-0.35254002 -0.18902333 2.0628333
-0.34808999 -0.18786001 2.0618
-0.19415 -0.12265 2.0618
-0.1859425 -0.1266225 2.065675
-0.18587001 -0.11855 2.0648999
-0.23831999 -0.22232001 2.0741
-0.37382999 -0.21585999 2.0741
-0.23796999 -0.21984001 2.0711
-0.36521932 -0.20525402 2.0741267
-0.35514638 -0.20245184 2.0769181
-0.34508273 -0.20354819 2.0741274
-0.33529446 -0.20460109 2.0737889
-0.32817 -0.20265999 2.0711
-0.36425 -0.19492599 2.0711
-0.35517401 -0.19673201 2.072
-0.34964001 -0.197285 2.0711
-0.18737668 -0.12334833 2.0736167
-0.18427999 -0.1189 2.0711
-0.371465 -0.21376 2.0850501
-0.36501858 -0.21208002 2.0852716
-0.3552433 -0.21108334 2.0871167
-0.3466 -0.21051 2.0850501
-0.33871502 -0.21099 2.0897
-0.36362249 -0.20657501 2.0834999
-0.35485128 -0.2068775 2.0811751
-0.34707332 -0.20798333 2.0814333
-0.33499247 -0.20819251 2.0834999
-0.32881001 -0.206955 2.0819499
-0.18511 -0.12267 2.0804
