# .PCD v0.7 - Point Cloud Data file format
VERSION 0.7
FIELDS x y z
SIZE 4 4 4
TYPE F F F
COUNT 1 1 1
WIDTH 1458
HEIGHT 1
VIEWPOINT 0 0 0 0 1 0 0
POINTS 1458
DATA ascii
0.1247525 -1.9448044 0.78530705
0.13546149 -1.944659 0.78524768
0.14509249 -1.944477 0.78517365
0.15470749 -1.9440758 0.78501189
0.16566621 -1.9446896 0.78498703
0.17519498 -1.9460976 0.78468794
0.18493289 -1.9459795 0.78483015
0.19506313 -1.9470325 0.78475553
0.20469044 -1.9475785 0.78558522
0.21510997 -1.9482836 0.78557235
0.22534783 -1.947366 0.784904
0.23484911 -1.9467248 0.78525424
0.24489546 -1.9476242 0.78511578
0.25551158 -1.9472034 0.78477556
0.26499224 -1.9475198 0.78557533
0.27522543 -1.9477458 0.78516483
0.28471419 -1.9481342 0.78575218
0.29392168 -1.9486791 0.78611231
0.3054868 -1.9483919 0.78657681
0.31510934 -1.9484159 0.78653836
0.32398558 -1.9489923 0.78560489
0.33114001 -1.9499933 0.78398353
0.35905999 -1.9499933 0.78398353
0.36614999 -1.9493182 0.78507686
0.37481165 -1.9496185 0.78459048
-0.042223126 -1.9318839 0.7840488
-0.034460071 -1.9320492 0.78419584
-0.024999857 -1.9344704 0.78539622
-0.0145278 -1.9337604 0.78537834
-0.0047342125 -1.9338011 0.78506112
0.0046845283 -1.9358426 0.78508902
0.014121411 -1.9375219 0.78616697
0.024868429 -1.93938 0.78684318
0.034124501 -1.9394984 0.78770518
0.045310829 -1.9383994 0.78511232
0.054927874 -1.9382826 0.78493923
0.063819997 -1.9390984 0.78660989
0.075018287 -1.9394747 0.78753287
0.086061999 -1.939664 0.78891218
0.097838499 -1.939664 0.78891218
-0.050979994 -1.921904 0.78531861
-0.045484316 -1.9272233 0.78583938
-0.036894001 -1.9299027 0.78721064
-0.063203715 -1.9130964 0.78454679
-0.056373876 -1.9153864 0.78523898
0.56618202 -1.9814169 0.79754031
0.57229602 -1.9814169 0.79754031
0.65762001 -1.98133 0.79889923
0.66198999 -1.98133 0.79889923
0.53727496 -1.9700198 0.79894447
0.54528904 -1.970857 0.79581815
0.55443752 -1.9738054 0.79513305
0.56436253 -1.9782488 0.79475242
0.57674533 -1.975366 0.79479027
0.5849269 -1.9714053 0.79560578
0.59378999 -1.9700198 0.79894447
0.6068725 -1.9712877 0.79541558
0.61443114 -1.9714075 0.79461432
0.62633002 -1.9708195 0.79273152
0.63170856 -1.9709804 0.79570282
0.6474033 -1.9719534 0.79587603
0.65495366 -1.9759825 0.79484135
0.66448718 -1.9755812 0.79689807
0.67087001 -1.9741715 0.79831111
0.43523252 -1.9604405 0.79410797
0.44506249 -1.9600462 0.79720592
0.45587999 -1.9600462 0.79720592
0.47751999 -1.9600462 0.79720592
0.49807 -1.9600462 0.79720592
0.51700503 -1.9603298 0.79674643
0.52561533 -1.963286 0.79514313
0.53466827 -1.9664444 0.79480577
0.54379338 -1.9683814 0.79366684
0.58648252 -1.9684503 0.79254007
0.5949586 -1.9668254 0.79457563
0.60561341 -1.9683814 0.79366684
0.61683196 -1.9681809 0.79358542
0.62391466 -1.9671168 0.79530883
0.63555562 -1.9650006 0.79474849
0.64304858 -1.9664346 0.7945267
0.66503859 -1.9678873 0.79214638
0.67076749 -1.966922 0.79653835
0.2535125 -1.9500881 0.79544175
0.32620999 -1.9500881 0.79544175
0.33653456 -1.9511479 0.794833
0.34529153 -1.9520025 0.79508221
0.35445845 -1.9514768 0.79459846
0.36372998 -1.9500881 0.79544181
0.38520366 -1.9511184 0.79377323
0.39476061 -1.9520208 0.79393643
0.40496355 -1.9538183 0.79549158
0.41459581 -1.9558506 0.79488206
0.42464945 -1.9570175 0.79516935
0.43406275 -1.9589591 0.79467481
0.44592384 -1.958041 0.7940985
0.45528376 -1.9581336 0.79514062
0.46492687 -1.9566876 0.79488122
0.47476062 -1.9580817 0.79488033
0.48396721 -1.9556293 0.79604512
0.49440575 -1.9566618 0.79523349
0.5045206 -1.9568456 0.79510003
0.51444459 -1.9577414 0.7950381
0.52324998 -1.9594045 0.79234397
0.0349387 -1.9412206 0.79229194
0.047161799 -1.9407711 0.79302031
0.055096 -1.9403214 0.79374862
0.066175334 -1.9406961 0.79314166
0.085020006 -1.9413433 0.79209328
0.094295882 -1.9412012 0.79371238
0.1056088 -1.9425273 0.79466033
0.1153025 -1.9430716 0.79488111
0.124984 -1.9433315 0.79498702
0.13492572 -1.9437318 0.79493195
0.14441957 -1.942283 0.79475117
0.15518217 -1.9415534 0.79406255
0.16460651 -1.9420614 0.79447007
0.17445321 -1.9441288 0.79531014
0.18519641 -1.9441249 0.79530853
0.19490452 -1.9444954 0.79545873
0.20463121 -1.9450314 0.79567534
0.21524543 -1.9447306 0.79536343
0.22497301 -1.9443543 0.79540169
0.23449792 -1.9447308 0.79536349
0.24498895 -1.9471697 0.79521966
0.25483355 -1.9483494 0.79489964
0.26506147 -1.9473517 0.79547703
0.27521005 -1.9459214 0.7949484
0.28443646 -1.9441824 0.79563016
0.29504406 -1.946299 0.7952556
0.3047038 -1.9462097 0.79582387
0.31437498 -1.9468772 0.79527861
0.32543001 -1.9485184 0.79503387
0.33284429 -1.9486778 0.79519731
0.35766 -1.9490191 0.79363251
0.36471051 -1.9484622 0.79512537
0.37479037 -1.947875 0.79454201
0.38448775 -1.9485073 0.79734647
0.39388335 -1.9487695 0.79757756
-0.042323202 -1.9311333 0.79454458
-0.034607168 -1.9311651 0.79455727
-0.025248479 -1.932735 0.79520226
-0.014554759 -1.9322674 0.79500735
-0.0049316301 -1.9319792 0.79488802
0.0046907053 -1.9329567 0.7952919
0.015400998 -1.93538 0.79537988
0.025052 -1.9374487 0.79486144
0.03497925 -1.9377623 0.79641902
0.044587113 -1.9378747 0.79541695
0.055064443 -1.937937 0.79531586
0.064403236 -1.9379781 0.79529643
0.07542292 -1.9380304 0.79510015
0.085215002 -1.9381686 0.79723585
0.095124833 -1.9390045 0.79588151
0.151595 -1.9391921 0.795578
-0.051282857 -1.921651 0.79486573
-0.045082055 -1.9259279 0.79530889
-0.036948502 -1.9294462 0.7938509
-0.055458844 -1.9162979 0.79472125
0.5648275 -1.9801849 0.80075419
0.57247001 -1.9801849 0.80075425
0.65807498 -1.9823323 0.80336696
0.66288114 -1.9817115 0.80369586
0.54549199 -1.9716542 0.80238867
0.55528837 -1.9725105 0.80472457
0.56518406 -1.9745885 0.80524975
0.57615709 -1.9753084 0.80469382
0.58476895 -1.971629 0.80242944
0.59105664 -1.9711212 0.80325204
0.60665751 -1.9715968 0.80248159
0.61493468 -1.972926 0.80462915
0.62471998 -1.9720258 0.80517107
0.63419753 -1.9716145 0.80626041
0.6451 -1.9730272 0.80503786
0.65359461 -1.9772737 0.80546957
0.66627151 -1.9774501 0.8056187
0.67115998 -1.9739317 0.80479121
0.42763501 -1.9604758 0.80545682
0.43654665 -1.9611052 0.80494523
0.44417778 -1.9612746 0.80450118
0.45528498 -1.9606184 0.80522597
0.46268001 -1.960264 0.80884576
0.49696597 -1.9616148 0.80661947
0.50435799 -1.9630581 0.80605209
0.51533669 -1.9624683 0.80588841
0.52543604 -1.9659958 0.80471355
0.535294 -1.9667906 0.80480325
0.54487389 -1.9681907 0.80630672
0.55115002 -1.969596 0.80572248
0.57945001 -1.9690235 0.80664998
0.58490539 -1.9684856 0.80705273
0.59461194 -1.9679836 0.80572367
0.6036914 -1.9677898 0.80647266
0.625462 -1.9687103 0.8035022
0.63580996 -1.9677523 0.80264896
0.64377999 -1.9688799 0.80079097
0.67254496 -1.9675241 0.80603278
0.24671 -1.9503217 0.80705607
0.25516 -1.9505707 0.80370188
0.32593 -1.9503217 0.80705613
0.33653599 -1.9512793 0.80491477
0.34520233 -1.9519907 0.80435312
0.35426667 -1.9516408 0.80452573
0.36446002 -1.9503217 0.80705607
0.38670799 -1.9505485 0.80668849
0.39548001 -1.9512222 0.8042357
0.40490946 -1.9518977 0.80450332
0.41511619 -1.9557313 0.80517858
0.42469665 -1.9572452 0.80539566
0.43236998 -1.9582186 0.80606717
0.44825998 -1.9591678 0.80452985
0.45578834 -1.9586396 0.80489331
0.4661032 -1.9572287 0.80394351
0.47549695 -1.956517 0.80498779
0.48471057 -1.955678 0.80532265
0.49312624 -1.9576011 0.80485445
0.50660199 -1.958482 0.8021
0.51468998 -1.9586596 0.80240238
0.10508666 -1.9407772 0.80462259
0.11560444 -1.9410281 0.80421609
0.1255509 -1.9413247 0.80373567
0.1359175 -1.9412477 0.80386037
0.14022 -1.9404006 0.80523241
0.17570502 -1.9415301 0.8034029
0.18538401 -1.9415301 0.80340302
0.19533616 -1.9415791 0.80377769
0.20488003 -1.9422693 0.80486071
0.21542685 -1.9436836 0.80490392
0.22481945 -1.942933 0.80539221
0.23542668 -1.9441466 0.80536515
0.24516732 -1.9475104 0.80527729
0.25503823 -1.9485922 0.8049866
0.2652128 -1.9466927 0.80500305
0.27384654 -1.9440205 0.80501318
0.28426823 -1.9417756 0.80404669
0.29547191 -1.943033 0.80490267
0.30518189 -1.9436889 0.80544984
0.31487617 -1.9457849 0.80473208
0.3246364 -1.9487048 0.80429381
0.33299002 -1.9493071 0.80279827
0.34125999 -1.9496855 0.8021856
0.35690001 -1.9494017 0.80264509
0.36565611 -1.9485381 0.80401492
0.37475178 -1.9466743 0.80418485
0.38391846 -1.9490085 0.80509734
0.39466831 -1.9495193 0.80442172
0.40335 -1.949187 0.80889404
-0.042411 -1.9306653 0.80348814
-0.033248428 -1.9311696 0.80435705
-0.024432298 -1.9311308 0.80391425
-0.01671675 -1.9309464 0.80303288
0.0060608638 -1.9312491 0.80415195
0.015718954 -1.9333836 0.80525452
0.025094802 -1.9351517 0.80536783
0.034677304 -1.9366344 0.80508339
0.045823 -1.937909 0.80483758
0.0552045 -1.9378947 0.80535281
0.064976908 -1.9380933 0.80516243
0.075653918 -1.9361479 0.80538285
0.085187301 -1.9364797 0.80559111
0.094948456 -1.9383731 0.8044039
0.10518688 -1.9390635 0.8045429
0.113696 -1.9392742 0.80477208
0.12460845 -1.9389262 0.8058635
0.13405834 -1.9388973 0.80576354
0.14473259 -1.9376259 0.80486113
0.15497585 -1.9372151 0.8048774
0.16457564 -1.9372656 0.80484664
0.17346217 -1.9381853 0.80678099
0.18538401 -1.9387062 0.80797642
0.19355999 -1.9388193 0.80779362
0.27787 -1.9392711 0.80706179
0.28432 -1.9389888 0.8075192
-0.051728997 -1.9216489 0.80561101
-0.044487573 -1.9261564 0.80520773
-0.036399201 -1.9287822 0.80476779
-0.026129598 -1.9290717 0.8048889
-0.013779633 -1.9284122 0.80496395
-0.0049358895 -1.9279457 0.8046478
0.0027682709 -1.9288473 0.80525237
-0.054997005 -1.9179213 0.80547571
0.6577633 -1.9810678 0.81353736
0.66443795 -1.9809109 0.81176078
0.67057002 -1.9804507 0.8125062
0.51601601 -1.9717478 0.81685686
0.52633446 -1.9726726 0.81630665
0.53153253 -1.971295 0.8151536
0.55632252 -1.9713194 0.81282991
0.56548727 -1.9716518 0.81291461
0.57460499 -1.9723718 0.81307125
0.58076 -1.9706572 0.81314093
0.608495 -1.9710075 0.81561947
0.61533815 -1.9731637 0.81403035
0.62452817 -1.9751515 0.81499881
0.63524616 -1.9759105 0.81608993
0.64485157 -1.9757465 0.81499672
0.6550529 -1.9783109 0.81561369
0.66491717 -1.9775357 0.81688935
0.67243785 -1.9752846 0.81521791
0.43946999 -1.9608897 0.81373322
0.44564688 -1.9620965 0.81482422
0.45599619 -1.9619027 0.81630957
0.46558464 -1.9628236 0.81669259
0.47520113 -1.9633505 0.81786931
0.48532575 -1.9615535 0.81700897
0.49709332 -1.9634018 0.81575614
0.50556767 -1.9680717 0.81535828
0.5142988 -1.9687636 0.81468523
0.52268165 -1.9687051 0.81427258
0.5358687 -1.9682317 0.81524241
0.54538584 -1.9681637 0.81541681
0.55508 -1.9690303 0.81694794
0.56400198 -1.9691498 0.81741047
0.57465398 -1.9692895 0.81840193
0.58542901 -1.9683192 0.81601489
0.59531796 -1.9680431 0.81561214
0.6041922 -1.9680841 0.81556827
0.61084998 -1.9691617 0.8125174
0.67457998 -1.969512 0.81499594
0.24744999 -1.9504386 0.81866896
0.25612 -1.9504386 0.81866902
0.31659332 -1.9518137 0.81847197
0.32592934 -1.9530895 0.81483203
0.33513829 -1.9545947 0.81481469
0.34548646 -1.9565443 0.81480402
0.35538667 -1.9541823 0.81493449
0.36487702 -1.9525397 0.81502807
0.37458333 -1.9506286 0.81836122
0.38627163 -1.9523125 0.81520528
0.39491132 -1.952849 0.81442207
0.40512615 -1.952958 0.81431347
0.41536003 -1.9556957 0.81506729
0.42507806 -1.9576356 0.81529224
0.43495542 -1.9582989 0.81551546
0.44409332 -1.9593309 0.81232423
0.45314166 -1.9591409 0.81263185
0.46485001 -1.959124 0.81069219
0.47540998 -1.9585642 0.81277925
0.4852711 -1.9589621 0.81423283
0.4916175 -1.9581393 0.81376266
0.11587111 -1.9409305 0.81365937
0.12547 -1.9407579 0.81461573
0.19736816 -1.9418505 0.81591487
0.20522422 -1.9433051 0.81434393
0.21502882 -1.9447688 0.81534541
0.22508904 -1.9431332 0.81472999
0.23493943 -1.9436063 0.81445146
0.24479334 -1.946874 0.81460792
0.25524813 -1.9480431 0.81332862
0.26485118 -1.9461299 0.81523466
0.27383417 -1.942896 0.81502664
0.28544912 -1.9411368 0.8143537
0.29502174 -1.942248 0.81524086
0.30481791 -1.945304 0.81518358
0.31500375 -1.9483665 0.81317359
0.32041001 -1.9489353 0.81225252
0.36985999 -1.9480523 0.81073201
0.37506074 -1.9480315 0.81303525
0.38271248 -1.9493767 0.81301272
-0.33502305 -1.9340227 0.81458622
-0.042506002 -1.9304982 0.81261051
-0.033512402 -1.9309597 0.81418574
-0.025134739 -1.9310865 0.8151592
-0.0171856 -1.9305613 0.81309843
-0.0060375002 -1.9313598 0.81987643
0.0061408114 -1.9307153 0.81449044
0.015174521 -1.9318563 0.81508255
0.02514369 -1.9338486 0.81516671
0.034749743 -1.9354321 0.81507659
0.045621518 -1.9363688 0.81506759
0.055289455 -1.9357603 0.81481349
0.064981572 -1.9360213 0.81492269
0.075795658 -1.9345648 0.81521392
0.085514732 -1.9331472 0.81577921
0.09508431 -1.935286 0.81487846
0.104885 -1.9376421 0.81560135
0.11420467 -1.9393123 0.81492621
0.1256979 -1.9382834 0.81490326
0.13497999 -1.9367735 0.81523788
0.14447173 -1.9349391 0.81536967
0.15516318 -1.9340638 0.81525427
0.16520296 -1.9350296 0.81532043
0.17455098 -1.9363455 0.8146199
0.18543525 -1.9383101 0.81454968
0.19300124 -1.9392347 0.81454474
0.27758601 -1.9395109 0.81501102
0.28471154 -1.9393407 0.81472403
0.292285 -1.9399073 0.81193227
-0.33460999 -1.9291248 0.81778562
-0.052386224 -1.9223989 0.81556648
-0.044712733 -1.9261001 0.81523138
-0.036296111 -1.928139 0.81544864
-0.026053501 -1.9293714 0.81443566
-0.014229765 -1.928623 0.81547415
-0.0048783799 -1.9286319 0.81504351
0.0041332385 -1.9287821 0.81480014
-0.05619362 -1.9181561 0.81427956
0.50992 -1.9705573 0.82243991
0.51578707 -1.971031 0.82525635
0.52518779 -1.9713881 0.82447863
0.5324688 -1.9707583 0.82515991
0.60888201 -1.9712013 0.82505167
0.61338401 -1.9720526 0.82306349
0.62560701 -1.9762959 0.82496977
0.63535196 -1.9758135 0.82580435
0.64512825 -1.9749018 0.82507771
0.65494663 -1.9774059 0.82585043
0.66494811 -1.9765295 0.82581967
0.67430276 -1.9746348 0.82531047
0.32743001 -1.9600002 0.82735711
0.33506 -1.9600002 0.82735717
0.34433499 -1.960341 0.8247745
0.39516997 -1.9611747 0.82697767
0.40430668 -1.9613752 0.8271603
0.41464001 -1.9600003 0.82735717
0.42423499 -1.9601501 0.82508373
0.44618499 -1.9603683 0.82371509
0.45555764 -1.9616731 0.82464749
0.46479821 -1.9651532 0.82581836
0.47507498 -1.9670689 0.82580614
0.48498696 -1.9641039 0.82558358
0.49447942 -1.9612298 0.8242234
0.50543684 -1.9667778 0.82606983
0.51648498 -1.9694121 0.82429492
0.52468252 -1.9694121 0.82429492
0.53624499 -1.9681457 0.824606
0.54485005 -1.9666756 0.82487983
0.55504006 -1.966881 0.82422715
0.56490999 -1.9671512 0.82473236
0.5751335 -1.9674898 0.82466763
0.58561611 -1.9667023 0.82550663
0.59556454 -1.9666865 0.82596815
0.60370934 -1.9674644 0.82582587
0.67611003 -1.9671111 0.82802188
0.206745 -1.9508793 0.82699716
0.24783 -1.9505744 0.82454062
0.25867999 -1.9505744 0.82454062
0.26302001 -1.9500045 0.82546389
0.30713004 -1.9521801 0.82705218
0.31502074 -1.9545684 0.82542205
0.32453915 -1.9574351 0.82491279
0.33488533 -1.9575799 0.82478005
0.34496203 -1.9585449 0.82565331
0.35496897 -1.9556412 0.82528114
0.3651253 -1.95529 0.82495391
0.37430078 -1.9525104 0.82598782
0.38496858 -1.9567112 0.82530135
0.39494666 -1.9579281 0.82259148
0.40596622 -1.9581292 0.82277334
0.41539443 -1.9580824 0.82369488
0.42560533 -1.9584519 0.82499182
0.43470353 -1.9562864 0.82441461
0.44456533 -1.958545 0.82565331
0.45216197 -1.9588959 0.82549083
0.49359998 -1.959005 0.82693863
0.11699668 -1.9414128 0.82673198
0.1243375 -1.9422969 0.82743096
0.13132 -1.9407248 0.82850218
0.16919 -1.9407248 0.82850218
0.17771 -1.9404172 0.82604992
0.185737 -1.9407059 0.82617283
0.19479497 -1.9426179 0.82543552
0.20470452 -1.9469436 0.82438201
0.21497001 -1.9472451 0.82429808
0.22545667 -1.9452659 0.82392603
0.23521787 -1.9439368 0.82485265
0.24522626 -1.9458793 0.82507086
0.2545729 -1.946483 0.82507622
0.26465002 -1.9459554 0.82520109
0.2750819 -1.9431136 0.82575679
0.28543079 -1.9435357 0.82487136
0.29548001 -1.9461639 0.82510889
0.302926 -1.9474971 0.82347172
0.31029999 -1.949304 0.82050693
0.37530664 -1.949304 0.82050687
-0.33513623 -1.9326382 0.8244682
-0.32852113 -1.9342153 0.82521325
-0.042601001 -1.9302303 0.82170588
-0.033617601 -1.9315555 0.82551736
-0.025440201 -1.9320236 0.82594907
-0.015131111 -1.930575 0.82442594
-0.004479982 -1.9314915 0.82561588
0.0051044789 -1.9315163 0.82593828
0.015893176 -1.9345064 0.82530528
0.025230074 -1.9361506 0.82489741
0.035066109 -1.9364959 0.82515693
0.044673692 -1.9369574 0.82574075
0.054551329 -1.9353648 0.82533628
0.065113924 -1.9343596 0.82579201
0.074822664 -1.9347006 0.82542086
0.084231749 -1.9322373 0.8255741
0.094984181 -1.9338336 0.82535249
0.10480142 -1.9369991 0.82526362
0.11324182 -1.9382706 0.8228212
0.12557776 -1.9381139 0.82224023
0.13511501 -1.9368887 0.8243565
0.14491501 -1.9350063 0.82490498
0.15512624 -1.9345762 0.82472008
0.16394626 -1.9354547 0.82480788
0.17508069 -1.9373797 0.82367897
0.18359144 -1.9384582 0.82290041
-0.33504 -1.9272722 0.82573563
-0.052813806 -1.923225 0.82496244
-0.044838749 -1.9270229 0.8251971
-0.037572999 -1.9278946 0.82456905
-0.014258455 -1.9292312 0.82548755
-0.0071129249 -1.9288385 0.82400787
0.0025656968 -1.9291009 0.82353526
0.086576 -1.9297214 0.82843125
-0.056286998 -1.9179758 0.82109171
0.52847254 -1.9716442 0.83286238
0.53560001 -1.9707814 0.83425999
0.555345 -1.9707814 0.83425999
0.61485457 -1.9715202 0.83493763
0.62554359 -1.9732691 0.83632219
0.63581091 -1.9747429 0.83552378
0.64510858 -1.9736145 0.83545828
0.65542412 -1.9747306 0.83573133
0.6649195 -1.9724286 0.83463824
0.67225724 -1.9721351 0.83483607
0.30765501 -1.9602189 0.83918571
0.31573889 -1.9609097 0.83738977
0.32566363 -1.9609113 0.83584923
0.33084801 -1.9608654 0.83570194
0.34701499 -1.9602189 0.83918571
0.35029 -1.9602189 0.83918571
0.36888501 -1.9602189 0.83918571
0.37325501 -1.9602189 0.83918571
0.38647801 -1.9606571 0.8372575
0.39546388 -1.9618955 0.83376342
0.40518346 -1.9615905 0.83537507
0.41485277 -1.9610909 0.83472759
0.42501557 -1.9606054 0.83517534
0.43667001 -1.9602189 0.83918571
0.447265 -1.9604518 0.83576274
0.45483398 -1.9612485 0.83508134
0.46507999 -1.9654456 0.83579606
0.47503653 -1.9678609 0.83503085
0.48437786 -1.9648817 0.83548063
0.49435553 -1.9618061 0.83539659
0.5049665 -1.9627707 0.83474809
0.51574904 -1.9667592 0.83523673
0.524813 -1.967602 0.83582675
0.53519714 -1.9680873 0.83557749
0.54497898 -1.967936 0.83566284
0.55501384 -1.9683592 0.8357994
0.56525522 -1.9674433 0.83489949
0.57528359 -1.9681141 0.83581144
0.584988 -1.9671946 0.83580619
0.59516555 -1.9665669 0.83601034
0.60423809 -1.9667499 0.83632302
0.61310166 -1.9692422 0.83675313
0.67641002 -1.9685627 0.83176214
0.11797 -1.9501538 0.83721447
0.12304334 -1.9501538 0.83721447
0.20682092 -1.9516098 0.83485585
0.21544334 -1.9515114 0.8342033
0.22419401 -1.951527 0.83499014
0.28697199 -1.9512069 0.83672696
0.29547501 -1.953406 0.83542776
0.3046836 -1.9559999 0.8343907
0.31576166 -1.9589297 0.83315212
0.32433802 -1.9591736 0.83356917
0.33540109 -1.9577832 0.83500963
0.34461501 -1.9581019 0.8344934
0.35490763 -1.9571276 0.83523566
0.36443946 -1.9573255 0.83507425
0.37518331 -1.9577266 0.83459336
0.3835367 -1.9585481 0.83377051
0.41672 -1.9589661 0.8351236
0.42562667 -1.9588275 0.83467162
0.43488944 -1.9583673 0.83466071
0.44390333 -1.9584705 0.83491153
0.45238337 -1.9595398 0.83419472
0.49605 -1.9595397 0.83419472
0.025357502 -1.9411073 0.8368296
0.034006499 -1.9401948 0.83526158
0.1081 -1.9408031 0.83630687
0.11453462 -1.9454967 0.83592832
0.124998 -1.9477961 0.83619833
0.13502468 -1.9445964 0.83575934
0.1419175 -1.9416771 0.83590639
0.16792665 -1.9422796 0.83590347
0.17542084 -1.9424995 0.83606547
0.18516262 -1.9442524 0.83566236
0.19480376 -1.9454521 0.83577633
0.20259111 -1.9485403 0.83443445
0.21233501 -1.9494692 0.83223188
0.22646333 -1.9494692 0.83223182
0.23505148 -1.9464424 0.83538324
0.24478061 -1.945923 0.8353942
0.25477874 -1.9457098 0.83501416
0.26513189 -1.9472022 0.8352142
0.27498305 -1.9473509 0.83618999
0.28384778 -1.9478226 0.83360881
0.29166999 -1.9494692 0.83223188
-0.34208569 -1.9350185 0.83437264
-0.33426538 -1.9314914 0.83528709
-0.32869667 -1.9338651 0.83371204
-0.042729001 -1.9304218 0.83338821
-0.033408001 -1.9315131 0.83489907
-0.025504852 -1.9324414 0.83542824
-0.014468475 -1.9313956 0.83491623
-0.0052373386 -1.9351563 0.8352524
0.0047417376 -1.9348319 0.83529365
0.015566134 -1.937505 0.83411038
0.025307903 -1.938571 0.83317089
0.035327751 -1.9385349 0.83426189
0.044761498 -1.9362049 0.83471686
0.054456171 -1.9342986 0.83506221
0.065081939 -1.9316984 0.8350473
0.074979499 -1.9336848 0.83531523
0.084650949 -1.9321535 0.83530444
0.095154248 -1.9351296 0.83498347
0.10468835 -1.9386516 0.83382708
0.11077 -1.9395849 0.83034861
0.137815 -1.9395849 0.83034861
0.14658539 -1.9377563 0.83421797
0.15493643 -1.9365774 0.83437663
0.16275625 -1.9384594 0.83364666
0.1735175 -1.9393011 0.83080804
-0.33519751 -1.9270875 0.83426785
-0.052318297 -1.9237587 0.8351391
-0.044628669 -1.9266583 0.83485287
-0.037417665 -1.9271876 0.83456588
-0.018998999 -1.9292872 0.83522618
0.067290999 -1.9292872 0.83522618
0.47711 -1.9703 0.84113157
0.60653996 -1.9709687 0.84613955
0.6160233 -1.9713577 0.84473538
0.62568003 -1.9722012 0.84414285
0.63517416 -1.9729223 0.84447551
0.64505601 -1.971501 0.84447771
0.65532941 -1.9726005 0.84506696
0.66333079 -1.9714115 0.84451449
0.67149335 -1.9705229 0.84280092
0.30921999 -1.9614682 0.84325361
0.31388456 -1.9617467 0.84391004
0.32375363 -1.9617299 0.84283012
0.33112001 -1.960893 0.84418535
0.36835 -1.960893 0.84418535
0.37272999 -1.960893 0.84418535
0.38596833 -1.9611963 0.84470946
0.39524853 -1.9618992 0.84438312
0.4054428 -1.961495 0.84495068
0.41501614 -1.9616071 0.84630871
0.42561248 -1.9612275 0.8466894
0.43490332 -1.9612647 0.8469677
0.44481331 -1.9611903 0.84641117
0.4548988 -1.9620597 0.84552068
0.46500832 -1.9649007 0.84446245
0.47532219 -1.9669579 0.84586763
0.48518813 -1.9635967 0.84444743
0.49377498 -1.9616878 0.84594393
0.50414002 -1.961784 0.84456968
0.51473999 -1.9625529 0.84416181
0.52445334 -1.963962 0.84530574
0.53508198 -1.9642501 0.84483922
0.54554117 -1.9657395 0.84529346
0.55546892 -1.9657848 0.84491849
0.56509173 -1.9650403 0.84499252
0.57543349 -1.9656317 0.84503859
0.58539939 -1.9659287 0.84516621
0.59463644 -1.9664679 0.84518868
0.60500932 -1.9687331 0.84691799
0.61408502 -1.968932 0.84842348
0.62523997 -1.9692352 0.84894753
0.6377067 -1.9694277 0.84863549
0.64559001 -1.9692353 0.84894753
0.65164 -1.9692352 0.84894753
0.66708255 -1.9691924 0.84597129
0.67464811 -1.9680941 0.8463285
0.68023998 -1.9692352 0.84894753
0.11823501 -1.9506004 0.8456285
0.12492523 -1.9513735 0.84568179
0.13182001 -1.9511467 0.84657097
0.20753001 -1.9514111 0.84126949
0.215662 -1.9512014 0.84282762
0.22485772 -1.9515179 0.8444193
0.2334975 -1.9506499 0.84859419
0.25985 -1.9508386 0.84219694
0.26667497 -1.9509649 0.84625655
0.27509713 -1.9518926 0.84484071
0.28532621 -1.953758 0.8450827
0.29453498 -1.9561992 0.84569669
0.30427742 -1.9584304 0.84579039
0.31579 -1.9585921 0.84791231
0.32465559 -1.9586222 0.84748268
0.33505547 -1.9569179 0.84536272
0.34511161 -1.9572784 0.84523129
0.35466653 -1.9576061 0.84553671
0.36540627 -1.9580582 0.84557062
0.3753475 -1.9585549 0.84553623
0.38394302 -1.9591967 0.84510535
0.39353502 -1.9597425 0.84604883
0.40557998 -1.9597425 0.84604883
0.4162125 -1.9594083 0.84354472
0.42453995 -1.9592732 0.84348643
0.43538442 -1.959371 0.84326655
0.44518554 -1.9594454 0.84382302
0.49601203 -1.9591115 0.84341657
0.50573558 -1.9588064 0.84485823
0.51234245 -1.959455 0.8465147
-0.0021883999 -1.9411291 0.8445608
0.0047662929 -1.9403338 0.84702903
0.015415001 -1.9433889 0.84465581
0.025094116 -1.9419518 0.84441984
0.033653501 -1.9411237 0.84338933
0.10499368 -1.9423459 0.84445131
0.114458 -1.9473301 0.84584975
0.13673624 -1.9473633 0.84554189
0.14503936 -1.9431731 0.84475029
0.15548067 -1.9418372 0.84502548
0.16450401 -1.9445426 0.84511071
0.17446107 -1.9465042 0.8460114
0.18533193 -1.946134 0.84575623
0.19540058 -1.9448291 0.84512281
0.20497046 -1.9474267 0.84606224
0.21446635 -1.9485481 0.84590685
0.22497 -1.9496933 0.8440519
0.23565 -1.9476022 0.84369022
0.24506263 -1.946529 0.84565103
0.25512001 -1.9479361 0.84465379
0.26341835 -1.9490075 0.8441475
-0.33553067 -1.934685 0.84503657
-0.032480601 -1.9315212 0.84459001
-0.025945118 -1.9321431 0.84483224
-0.014258944 -1.9326566 0.84484935
-0.0059109 -1.93778 0.84572458
0.004761009 -1.9388015 0.84498721
0.026501333 -1.9391941 0.84887552
0.035936572 -1.9388934 0.84556878
0.044883061 -1.9369092 0.84436685
0.054735441 -1.9352052 0.84505695
0.06528005 -1.932955 0.84537047
0.074937463 -1.9345727 0.84488076
0.084947266 -1.9349118 0.84466898
0.095031746 -1.9376959 0.84494424
0.10025 -1.9397397 0.84209049
0.151255 -1.9397397 0.84209049
-0.33662 -1.9298919 0.84014773
-0.052475002 -1.9250393 0.84502578
-0.044818059 -1.9266067 0.84415758
-0.036501907 -1.9271554 0.84404379
-0.023359001 -1.9297136 0.84240371
-0.019042 -1.9296243 0.84353173
0.066311501 -1.9298919 0.84014773
0.63635492 -1.9711552 0.85364246
0.644759 -1.9709991 0.85541803
0.65517282 -1.9718113 0.85498619
0.66490376 -1.9728801 0.85546696
0.31187999 -1.9604115 0.85105681
0.37439001 -1.9604115 0.85105681
0.38536 -1.9604115 0.85105681
0.39523 -1.9604114 0.85105687
0.40509999 -1.9604115 0.85105681
0.41608074 -1.9614005 0.85367239
0.42516249 -1.9607408 0.85356939
0.43566185 -1.9613792 0.85443884
0.44473076 -1.9614124 0.85459012
0.45498633 -1.9622321 0.85484105
0.46501315 -1.9640877 0.85534722
0.47461599 -1.9643819 0.85467672
0.48390085 -1.9635421 0.85457039
0.49428305 -1.9613116 0.85381639
0.50498176 -1.9620969 0.85513496
0.51543933 -1.9622345 0.85500813
0.5251506 -1.963634 0.85497487
0.53531897 -1.9631212 0.85519636
0.54473573 -1.9646219 0.85450655
0.5549171 -1.9647228 0.85549545
0.56471795 -1.9637693 0.85432088
0.57471699 -1.9640067 0.85529768
0.58459699 -1.9631474 0.85430592
0.59458679 -1.9635491 0.85511225
0.60529286 -1.9647157 0.85529399
0.61541051 -1.9664642 0.85552996
0.62502593 -1.9676644 0.85518694
0.633371 -1.9685152 0.85576725
0.6449275 -1.9694009 0.85496128
0.65263999 -1.9694009 0.85496128
0.66924 -1.9675015 0.8517555
0.67408854 -1.9663279 0.85499942
0.68075997 -1.9672929 0.85523462
0.12464499 -1.9515549 0.85382855
0.13162 -1.9510311 0.85406804
0.22784001 -1.952178 0.85221022
0.23240462 -1.9523576 0.85519892
0.26590616 -1.9519156 0.85591507
0.27529874 -1.9547497 0.85451722
0.285173 -1.954861 0.85456502
0.29506811 -1.9551208 0.85467732
0.30486304 -1.9547132 0.85449922
0.31479946 -1.9549046 0.85523903
0.32454997 -1.9539902 0.85536599
0.33539686 -1.9533976 0.85510802
0.3451122 -1.9542457 0.85495239
0.35475358 -1.9564097 0.85503066
0.36480945 -1.95775 0.85600924
0.375545 -1.9578253 0.85585558
0.38539687 -1.957714 0.85580683
0.39477497 -1.9578214 0.85559058
0.40469444 -1.9583884 0.85636437
0.4147633 -1.9592294 0.8580482
0.42522702 -1.9594208 0.85631657
0.43356249 -1.9597497 0.85669768
0.44686332 -1.9596949 0.8562789
0.48699501 -1.9599143 0.85795391
0.49475202 -1.9594376 0.85750788
0.51206255 -1.9597497 0.85669756
0.56497997 -1.9599143 0.85795391
0.014568999 -1.9415804 0.85110128
0.023431715 -1.9413351 0.85149872
0.035084724 -1.9409131 0.85605872
0.044021998 -1.9411044 0.85796422
0.086155668 -1.9413482 0.85689241
0.095267333 -1.943067 0.8552928
0.10511351 -1.9442797 0.85464829
0.11529295 -1.9473866 0.85567141
0.12548199 -1.9493542 0.85617512
0.13530752 -1.9478467 0.85503852
0.1446742 -1.9451699 0.8552264
0.15552166 -1.9428 0.85386419
0.16535941 -1.9453013 0.8547495
0.17531574 -1.9466268 0.85540062
0.18493499 -1.9465346 0.85564089
0.1944335 -1.9432459 0.85419053
0.2052184 -1.9444183 0.8545199
0.21534447 -1.9463987 0.85487109
0.22384116 -1.9485945 0.85550654
0.23727125 -1.9492011 0.85474801
0.24517098 -1.9473305 0.85571128
0.25477472 -1.9487193 0.85458803
0.26262832 -1.9495487 0.8534233
-0.052598201 -1.933841 0.85640395
-0.046126571 -1.9335601 0.85547227
-0.032490689 -1.9328054 0.85601658
-0.025414903 -1.9325476 0.85489196
-0.01455455 -1.9316556 0.85485142
-0.0050133909 -1.9349369 0.85523415
0.0047662957 -1.9357686 0.85442346
0.01456794 -1.9379644 0.85657799
0.024243668 -1.9383397 0.85635072
0.035484221 -1.9392817 0.85414779
0.045662902 -1.9385014 0.85304308
0.054436058 -1.9376253 0.85446227
0.06514167 -1.9353466 0.85516036
0.075167321 -1.9369507 0.85507393
0.083807223 -1.9389322 0.8526836
0.15171 -1.9398627 0.85388362
-0.053755999 -1.9299511 0.85185421
-0.041296501 -1.9288311 0.8537159
-0.037497126 -1.9278932 0.85447371
-0.021267999 -1.9297156 0.85528147
-0.015627401 -1.9297626 0.85459596
0.62812001 -1.9707816 0.86509788
0.63632721 -1.9711117 0.86456305
0.64388549 -1.9705843 0.86262548
0.65578997 -1.970965 0.86210853
0.6652171 -1.9718592 0.8633523
0.67453003 -1.9707816 0.86509788
0.68334246 -1.9723064 0.86576891
0.41660145 -1.9604877 0.86670589
0.42520571 -1.9607664 0.86580652
0.4346956 -1.9609076 0.86592656
0.44535932 -1.9608872 0.86456376
0.45528334 -1.9609072 0.86536896
0.46535382 -1.9616929 0.86587602
0.47505212 -1.9622397 0.86523837
0.48463473 -1.9613951 0.86574405
0.49502084 -1.960678 0.86542583
0.50554943 -1.9615986 0.86571473
0.51440763 -1.9613365 0.86543721
0.52483058 -1.9646751 0.86518067
0.53413004 -1.9644182 0.86576366
0.54531276 -1.9645061 0.86538088
0.55514938 -1.9629778 0.86498427
0.56396705 -1.961089 0.86546844
0.57519525 -1.9627854 0.8649748
0.58505762 -1.9627314 0.86534995
0.5949111 -1.9633067 0.86512846
0.60482252 -1.9647646 0.8658855
0.61558425 -1.9667157 0.86502141
0.6248458 -1.9680074 0.86388081
0.63371778 -1.9688295 0.86477005
0.64543617 -1.9688715 0.86480916
0.65405357 -1.9686453 0.86586601
0.66428143 -1.9690192 0.8670553
0.67402315 -1.9682332 0.86532348
0.68063998 -1.9692568 0.86442679
0.12528166 -1.9504561 0.86210614
0.1335675 -1.950578 0.86393929
0.22819 -1.950539 0.86095667
0.23454285 -1.9508419 0.8648175
0.24498001 -1.9500418 0.86785364
0.25570416 -1.9507955 0.86561775
0.26469937 -1.9515818 0.86497819
0.27484637 -1.9541172 0.86490804
0.28548542 -1.9531788 0.86429572
0.29518998 -1.9523757 0.86436355
0.3053 -1.9523445 0.86412328
0.31507704 -1.9519 0.8644858
0.32464251 -1.9508857 0.86496401
0.33494315 -1.9519521 0.86514056
0.34511003 -1.953391 0.86504012
0.35490525 -1.9547982 0.86495781
0.36500585 -1.9550266 0.86510986
0.37527865 -1.9545158 0.8647598
0.38497478 -1.9538635 0.86510617
0.39425644 -1.9543159 0.86415541
0.40483505 -1.9569111 0.86495054
0.41414446 -1.9582405 0.86540306
0.42430672 -1.959219 0.86517143
0.43494001 -1.9594116 0.86485946
0.44440001 -1.9587181 0.86598271
0.45408002 -1.9591805 0.86523378
0.46024001 -1.9594116 0.86485946
0.48774001 -1.9594116 0.86485946
0.49544001 -1.9589782 0.86556149
0.51414001 -1.9594116 0.86485946
0.56474 -1.9594116 0.86485946
0.035371199 -1.9408092 0.86636114
0.044354003 -1.9408948 0.86642575
0.054655503 -1.9403394 0.86631006
0.068106003 -1.9400398 0.86578029
0.075230621 -1.9406331 0.86634201
0.085100561 -1.9428464 0.86466068
0.094680689 -1.94462 0.86445254
0.10520716 -1.9451361 0.86477691
0.11536313 -1.947109 0.86537027
0.12527053 -1.9480034 0.8657046
0.13529071 -1.9480838 0.86580372
0.14485051 -1.9461867 0.86496055
0.15497409 -1.9429523 0.86438566
0.1646305 -1.9441618 0.86489075
0.17441125 -1.9463705 0.86504352
0.18432851 -1.947072 0.86535388
0.19521904 -1.9442933 0.86440188
0.20470849 -1.9425141 0.86451358
0.21433696 -1.9434388 0.86451238
0.22479814 -1.94674 0.86520636
0.23512001 -1.9489577 0.865955
0.24466643 -1.9481655 0.86567116
0.25327286 -1.9491522 0.8640728
0.29872 -1.948886 0.86972558
0.30603001 -1.948886 0.86972553
0.31537667 -1.9490534 0.86742377
0.32530889 -1.9491094 0.86665654
0.33162001 -1.948886 0.86972558
-0.054088753 -1.9367676 0.86549664
-0.045577683 -1.9358115 0.86525494
-0.033211723 -1.9320519 0.86542797
-0.024591997 -1.930912 0.86490124
-0.013870785 -1.9307013 0.86480731
-0.004770169 -1.9331794 0.86470914
0.0047758282 -1.9344594 0.86446333
0.014593375 -1.9367065 0.86546844
0.024517499 -1.9381218 0.86556417
0.035312999 -1.9389445 0.86268091
0.046212859 -1.938989 0.86226076
0.055102639 -1.9388371 0.86337721
0.064592414 -1.9381317 0.86531717
0.074371196 -1.9386171 0.86442959
-0.037579332 -1.928153 0.86282533
-0.021315999 -1.9289186 0.86551923
-0.016964002 -1.9286314 0.86500102
0.61580002 -1.9703431 0.87209004
0.62520635 -1.9716603 0.87224084
0.63618898 -1.9721237 0.87360299
0.64430493 -1.9713998 0.87391192
0.65502661 -1.9711113 0.87503338
0.66530991 -1.9727758 0.87482435
0.6762886 -1.9720554 0.87559837
0.68327093 -1.9720918 0.87439722
0.417952 -1.961241 0.87426937
0.4252325 -1.961357 0.87408131
0.43467557 -1.9612925 0.87418586
0.4469367 -1.9611635 0.87439483
0.45539331 -1.96097 0.87470818
0.46511576 -1.9612741 0.87421566
0.47537667 -1.9615493 0.87376982
0.48459601 -1.9610087 0.87464553
0.49578601 -1.9611523 0.8756696
0.50568503 -1.9629351 0.87518984
0.51503068 -1.9626293 0.8753711
0.52483052 -1.9635763 0.87529027
0.5349201 -1.9630272 0.87483108
0.54526585 -1.9634242 0.87479752
0.55473781 -1.9623688 0.8745364
0.56616819 -1.96162 0.8736555
0.57540315 -1.9636353 0.87510246
0.58540118 -1.9655696 0.87575734
0.59486669 -1.9640565 0.87529296
0.60498995 -1.9641665 0.8751514
0.61456001 -1.9644103 0.87481946
0.62568861 -1.9673179 0.87699008
0.633609 -1.9675061 0.87731349
0.64537203 -1.9697506 0.87807512
0.65197003 -1.9697148 0.87781912
0.67326272 -1.9681613 0.87505299
0.68215001 -1.9698941 0.87909919
0.23986 -1.9512596 0.87197256
0.24206001 -1.9506844 0.8729043
0.25573221 -1.9511958 0.87207609
0.26505953 -1.9512707 0.8759135
0.27517751 -1.952033 0.87579483
0.28489152 -1.9516853 0.87586081
0.29411194 -1.9512887 0.8747682
0.3051782 -1.9507629 0.87554586
0.31469336 -1.9508346 0.87631512
0.3250767 -1.9505248 0.87654686
0.33576596 -1.950869 0.8758536
0.34452102 -1.9512968 0.87556684
0.35460746 -1.9530555 0.87489802
0.36513737 -1.9531813 0.87465018
0.37456548 -1.9522114 0.87561768
0.38496 -1.9522631 0.87492526
0.39536476 -1.9551069 0.8751381
0.40491059 -1.957972 0.87497222
0.41416934 -1.9586685 0.87600011
0.4252325 -1.9590378 0.87783808
0.43550637 -1.9590329 0.87729228
0.44470716 -1.9584275 0.875346
0.45466828 -1.9590726 0.87625933
0.46522427 -1.9592699 0.87572163
0.4747546 -1.9590805 0.87666148
0.4851217 -1.9590198 0.87583691
0.49388251 -1.9589667 0.87541533
0.50098503 -1.9592997 0.87436837
0.55654001 -1.9596157 0.8769021
0.56387001 -1.9594892 0.87588865
-0.056518104 -1.9412074 0.87607157
-0.046663001 -1.9405683 0.87710673
0.0363121 -1.9405539 0.87408447
0.044829078 -1.9410696 0.87455434
0.054517422 -1.9407774 0.8745929
0.064829715 -1.9404024 0.87476474
0.074663244 -1.9408337 0.87464666
0.084768072 -1.9428844 0.87470901
0.094651721 -1.9436629 0.8745302
0.1053782 -1.9432069 0.87421685
0.11499364 -1.9439347 0.87497652
0.12542042 -1.9451591 0.87500077
0.13532501 -1.9458506 0.87498057
0.1451312 -1.9447236 0.87500542
0.1548 -1.9417266 0.87484992
0.16487175 -1.9424138 0.87438238
0.17472951 -1.9446939 0.87499225
0.18469399 -1.9463015 0.87452126
0.1950478 -1.9450239 0.87395054
0.20461118 -1.9429535 0.87575161
0.21543726 -1.9429746 0.87486994
0.22512548 -1.9443998 0.87485945
0.23477958 -1.9458153 0.87549376
0.24537668 -1.9472655 0.87519282
0.25456768 -1.9484632 0.87650162
0.26293001 -1.9495287 0.8747763
0.28600001 -1.9495287 0.8747763
0.29576111 -1.948631 0.87623048
0.30419713 -1.9490335 0.87557858
0.31511286 -1.9491074 0.87458843
0.32570702 -1.9488869 0.87520635
0.334764 -1.9492975 0.87515068
-0.053699248 -1.9392546 0.87314314
-0.04475975 -1.9377109 0.87462854
-0.034149282 -1.9346881 0.87444878
-0.025134429 -1.9323796 0.87470722
-0.013386667 -1.9306015 0.87497658
-0.0050311792 -1.9319534 0.87400472
0.0046011871 -1.9324411 0.87402773
0.014616436 -1.9352472 0.87430495
0.024470251 -1.9372311 0.87520313
0.034486927 -1.9389046 0.87545061
0.048553664 -1.9389895 0.87560314
0.055922553 -1.9391025 0.87615877
0.064962499 -1.9389896 0.87560302
0.074412994 -1.9389399 0.87586826
0.15481499 -1.9390345 0.87959141
0.165765 -1.9390345 0.87959141
0.20597 -1.9395423 0.87267727
-0.021364 -1.9293232 0.87400138
-0.01504425 -1.9286306 0.8745144
0.61865002 -1.971302 0.889382
0.627545 -1.971302 0.889382
0.63675249 -1.9711267 0.88809562
0.64579868 -1.9714763 0.88674396
0.6567685 -1.9718217 0.88515759
0.66560775 -1.9736894 0.88481712
0.67501777 -1.972417 0.88478434
0.68397182 -1.9716835 0.88647974
0.41815001 -1.960333 0.88202238
0.45498332 -1.960333 0.88202238
0.46478459 -1.9609078 0.88302433
0.47487998 -1.9607065 0.88267362
0.49882501 -1.9609135 0.88108206
0.50601852 -1.962733 0.88396823
0.51513177 -1.9641073 0.88514674
0.52502173 -1.9657402 0.88545769
0.5351339 -1.9642546 0.88494271
0.5454241 -1.9634621 0.88471401
0.55476552 -1.9618365 0.88377464
0.56513941 -1.9618108 0.88416553
0.57507253 -1.963541 0.88467807
0.58543313 -1.9667308 0.88554543
0.59528774 -1.9659604 0.88584024
0.60505068 -1.9665701 0.88532066
0.61482716 -1.9666659 0.88522542
0.62457597 -1.9675419 0.88479364
0.63443637 -1.9682431 0.88405764
0.64406902 -1.9686146 0.88431245
0.65198499 -1.9688869 0.88387161
0.66766 -1.9682683 0.88801432
0.67444634 -1.9683293 0.88563114
0.68367994 -1.9690106 0.88304299
0.27145001 -1.950878 0.88496411
0.28026 -1.9514585 0.8840239
0.3089 -1.950878 0.88496411
0.31478 -1.9510714 0.88465071
0.32441333 -1.9513685 0.88518471
0.33495536 -1.9517359 0.8849802
0.34495333 -1.951592 0.88448441
0.35517573 -1.9519547 0.88322031
0.36509252 -1.9520373 0.88308644
0.3753446 -1.9518592 0.88337481
0.38538834 -1.9522377 0.88377643
0.39492106 -1.9545089 0.88486749
0.40492633 -1.9573581 0.88485646
0.41478822 -1.9578848 0.88487917
0.42509097 -1.9577525 0.88494599
0.43509874 -1.9565799 0.88482386
0.44479901 -1.957159 0.885279
0.45469311 -1.9588882 0.88581222
0.46507102 -1.9593385 0.88614589
0.47522002 -1.9588332 0.8854177
0.48465729 -1.9572889 0.88523978
0.49448553 -1.9580353 0.88539481
0.50260198 -1.9593639 0.88736123
0.55781996 -1.9595253 0.88647151
0.57152998 -1.9598787 0.88904005
-0.061083995 -1.942605 0.88599122
-0.055804331 -1.9417191 0.88505751
-0.046550799 -1.9412512 0.88513786
0.026763501 -1.9405606 0.88625681
0.037413426 -1.9408371 0.88450348
0.045036886 -1.9410894 0.88370788
0.054554 -1.9406477 0.88510019
0.064127997 -1.9402988 0.88972664
0.075047784 -1.9407175 0.88566422
0.084863141 -1.9415416 0.88487077
0.094813421 -1.9413956 0.88506448
0.10519467 -1.9411923 0.88503098
0.11449952 -1.9419299 0.88534343
0.12451001 -1.9424524 0.88532418
0.13459119 -1.9429489 0.88519043
0.1451675 -1.9418699 0.88565809
0.154735 -1.9409058 0.88569772
0.1651863 -1.9414892 0.88523364
0.17514563 -1.9440997 0.88547355
0.1849262 -1.9461663 0.88430232
0.19512998 -1.9472969 0.8845306
0.20525666 -1.9450111 0.88548851
0.21474624 -1.9444668 0.88564014
0.224503 -1.9433279 0.88512385
0.23518367 -1.9429905 0.88440412
0.24499092 -1.9446696 0.88486201
0.25439653 -1.9456692 0.88498718
0.2644915 -1.9477301 0.88472301
0.274634 -1.9478428 0.88485467
0.28488833 -1.9483242 0.88526177
0.29509366 -1.9480045 0.88465899
0.30481371 -1.9486442 0.88544166
0.31598103 -1.949322 0.88497174
0.32628167 -1.9493662 0.88427168
0.33864999 -1.9497223 0.88683611
0.34691498 -1.9494333 0.88730407
0.355176 -1.9491444 0.88777208
0.36509252 -1.9491444 0.88777208
0.37500599 -1.9491444 0.88777208
0.38382 -1.9494333 0.88730407
-0.051120996 -1.9385179 0.88651961
-0.042613875 -1.9385828 0.88565284
-0.034708701 -1.935527 0.8847425
-0.025666786 -1.9326134 0.88433558
-0.013941572 -1.9306647 0.88531667
-0.0048254398 -1.9318414 0.88474506
0.004798851 -1.9340299 0.88447261
0.014658686 -1.9361573 0.88425159
0.024292832 -1.9379518 0.88506782
0.034886926 -1.9386375 0.88589108
0.045386996 -1.9387484 0.88614625
0.055365823 -1.9383011 0.88543761
0.065166935 -1.93823 0.8849557
0.075343497 -1.9386044 0.88536435
0.0850868 -1.9387484 0.88614637
0.094737671 -1.9390942 0.88558644
0.103072 -1.9392096 0.88539922
0.11374667 -1.9392866 0.88527447
0.14957 -1.9396719 0.88465047
0.15557499 -1.9390149 0.88495302
0.16493 -1.9396719 0.88465047
-0.0218632 -1.9288248 0.88638246
-0.015958918 -1.929059 0.8845818
-0.0083124004 -1.9297172 0.88250053
0.54499501 -1.9708271 0.89643383
0.55056 -1.9708271 0.89643383
0.59511 -1.9712139 0.89580697
0.60765141 -1.9717579 0.89582318
0.61483729 -1.9721626 0.89484161
0.62531489 -1.9724264 0.8947407
0.63524801 -1.9721321 0.89557612
0.64322668 -1.9722006 0.89490658
0.65490377 -1.9716583 0.89469433
0.66429698 -1.9730172 0.89481896
0.67755502 -1.9707704 0.8933844
0.68449664 -1.9713699 0.89555448
0.45511001 -1.9607738 0.89566678
0.46440461 -1.9616772 0.89534014
0.47152999 -1.9618949 0.89519709
0.50772715 -1.962904 0.89490855
0.51417804 -1.9641001 0.89434695
0.52484405 -1.965699 0.8953166
0.53470796 -1.9661186 0.89526546
0.54473728 -1.9681778 0.89501405
0.55490571 -1.9664153 0.89460576
0.56474388 -1.9657533 0.89450455
0.57487571 -1.9646848 0.89381874
0.58543998 -1.9670395 0.89471632
0.59548753 -1.967894 0.894903
0.60245144 -1.9674628 0.89560091
0.61642998 -1.9689645 0.89316851
0.63422 -1.9689645 0.89316851
0.64599001 -1.9689322 0.89557683
0.65635997 -1.9696555 0.89833128
0.66811246 -1.9685535 0.89540476
0.67447883 -1.9684694 0.89536613
0.68812001 -1.96931 0.89574993
0.28069001 -1.9503437 0.89192057
0.29496497 -1.951005 0.89503765
0.30625555 -1.9509405 0.89514226
0.31502667 -1.9518634 0.8940661
0.32511631 -1.9530358 0.89417267
0.33491176 -1.9525052 0.89433217
0.343245 -1.9509484 0.89219749
0.37808001 -1.9506946 0.89449346
0.38472468 -1.9513372 0.89366215
0.39487055 -1.9553416 0.89569116
0.40570337 -1.9579935 0.89508486
0.41515952 -1.957876 0.8957392
0.42526099 -1.9577057 0.89495307
0.4349272 -1.9563487 0.89615399
0.44469526 -1.9567844 0.89516056
0.45465544 -1.9589466 0.89454705
0.46654505 -1.9585392 0.89749146
0.47589281 -1.9573694 0.89554703
0.48486412 -1.9555222 0.89495426
0.49541658 -1.9571368 0.89557511
0.50248903 -1.9584345 0.8951481
0.074126005 -1.9409202 0.89481127
0.084027 -1.9412092 0.89434326
0.094476998 -1.9409202 0.89481127
0.10493 -1.9409202 0.89481127
0.11647911 -1.9417419 0.89519352
0.12511778 -1.9416403 0.89434296
0.13364817 -1.9417194 0.89408785
0.14673001 -1.9414982 0.89387524
0.15443 -1.941498 0.89387524
0.16471751 -1.9419417 0.8936801
0.17555749 -1.9434828 0.89600074
0.18500362 -1.9459195 0.89493394
0.19491693 -1.94698 0.89551497
0.20516953 -1.9459758 0.89539641
0.21541296 -1.9439886 0.89538437
0.22517081 -1.9423975 0.89529753
0.23464444 -1.9425161 0.89501834
0.24507999 -1.9450865 0.89553517
0.25501874 -1.9452353 0.89560354
0.26503161 -1.9464988 0.89498138
0.27520666 -1.9468149 0.89459068
0.28529 -1.9482125 0.89475149
0.295344 -1.9489924 0.89540404
0.30395401 -1.9491078 0.89521694
0.34558716 -1.948843 0.89571095
0.35479724 -1.9464489 0.89463043
0.3646391 -1.9463429 0.89522338
0.37388358 -1.9479043 0.89459342
0.38029 -1.9495335 0.89637399
0.48225001 -1.9498843 0.89894688
-0.31453249 -1.9334614 0.89737451
-0.30454001 -1.9341749 0.89710778
-0.294992 -1.9363902 0.89849454
-0.285586 -1.93522 0.89795321
-0.27856001 -1.9345255 0.89907813
-0.26298252 -1.9345076 0.89606142
-0.255476 -1.9343879 0.8956461
-0.24565999 -1.9351649 0.89296603
-0.061886799 -1.935416 0.89276218
-0.053830426 -1.9339808 0.89457142
-0.044710238 -1.9343013 0.89450991
-0.034669921 -1.9332165 0.89510643
-0.024854057 -1.9317598 0.89567423
-0.014636957 -1.931538 0.89570677
-0.0050584343 -1.9323616 0.89513779
0.0049947361 -1.9345431 0.89448017
0.014693649 -1.9356632 0.8947978
0.024378141 -1.9371352 0.89456087
0.035337474 -1.9373492 0.89418381
0.045140941 -1.9376546 0.8947261
0.055223342 -1.9362715 0.89466035
0.065232553 -1.9372542 0.89499694
0.075290948 -1.9388118 0.89518058
0.085438751 -1.9388317 0.89565593
0.095100746 -1.938915 0.89539421
0.10486072 -1.9390028 0.89530647
0.11343901 -1.938823 0.8957718
0.12443125 -1.9392533 0.89674968
0.1353918 -1.9392312 0.89643949
0.14459144 -1.9389204 0.89544016
0.15487626 -1.9387704 0.89562821
0.16573907 -1.9385937 0.89636439
-0.3078225 -1.9283928 0.89682859
-0.28318501 -1.9275298 0.8982262
-0.27990001 -1.9275298 0.8982262
-0.26238 -1.9298308 0.89449924
-0.25638333 -1.9255499 0.8933115
-0.24449 -1.9269083 0.89314151
-0.061993003 -1.9286803 0.89636272
-0.058160499 -1.9283926 0.89682859
-0.28953001 -1.9153321 0.89970946
-0.28821999 -1.9055412 0.89748436
0.52059001 -1.9706787 0.90609658
0.54584002 -1.9703411 0.90350252
0.55141997 -1.9709268 0.9025538
0.56669253 -1.9708028 0.90432519
0.57143438 -1.9721709 0.90542465
0.58678007 -1.9709499 0.90408695
0.59400219 -1.9710124 0.90381122
0.60829496 -1.9709268 0.9025538
0.61576831 -1.973426 0.90478748
0.6254881 -1.9758955 0.90483266
0.63468498 -1.9747028 0.90474224
0.64432669 -1.9734422 0.90533203
0.65406805 -1.9715185 0.90599221
0.66496217 -1.9724226 0.90463156
0.67449534 -1.9724523 0.90512091
0.68520433 -1.973395 0.90490597
0.69132501 -1.974333 0.90655464
0.40454 -1.9601047 0.90123737
0.42178002 -1.9603316 0.90296394
0.44792667 -1.9605583 0.90469056
0.45362091 -1.9611493 0.90525621
0.46399 -1.9603316 0.90296394
0.47115001 -1.9601047 0.90123737
0.50663 -1.9618089 0.90475887
0.51441503 -1.966974 0.90491825
0.52570999 -1.9668287 0.90448058
0.5350256 -1.9658946 0.90481609
0.5451383 -1.9680574 0.90475899
0.5549385 -1.9672226 0.90425605
0.56297803 -1.9680274 0.90536577
0.57595181 -1.9671323 0.90477431
0.5824036 -1.9681302 0.90537047
0.59609222 -1.9675094 0.90599549
0.60517502 -1.9662077 0.90526205
0.61834002 -1.9691696 0.90540004
0.64653802 -1.968388 0.90164089
0.65632671 -1.9685183 0.90226746
0.24651 -1.9512609 0.90928072
0.287085 -1.9505752 0.90410954
0.29616752 -1.951305 0.90606833
0.30496934 -1.9520252 0.90511125
0.31486645 -1.9534932 0.9041869
0.32490668 -1.9558816 0.90563518
0.33523098 -1.9530252 0.90432894
0.34370777 -1.9511907 0.90520638
0.37611857 -1.950967 0.9070645
0.38494131 -1.952166 0.9040457
0.3941077 -1.9566598 0.90488464
0.40467876 -1.9576228 0.90525782
0.41419002 -1.9565724 0.90516436
0.42491716 -1.9588469 0.90551847
0.43484157 -1.9573931 0.90466362
0.44435453 -1.9588666 0.90552747
0.45658505 -1.9589701 0.90516919
0.46493769 -1.9589299 0.90555644
0.47501284 -1.9567739 0.90438902
0.48451716 -1.9532089 0.90343368
0.49463359 -1.9571128 0.90494156
0.50225431 -1.9590627 0.9056173
0.59994 -1.9589385 0.90312636
0.60086 -1.9596189 0.90830606
0.081951998 -1.9404608 0.90183753
0.093111001 -1.9410665 0.90694749
0.10178 -1.9404608 0.90183753
0.115005 -1.9404608 0.90183753
0.12492 -1.9404608 0.90183753
0.13153 -1.9404608 0.90183753
0.14695001 -1.9404608 0.90183753
0.15466 -1.9404608 0.90183753
0.16323666 -1.9409572 0.90407902
0.174496 -1.9404608 0.90183753
0.18489531 -1.9424968 0.90422499
0.19472849 -1.9438627 0.90461749
0.20474751 -1.9446912 0.90500295
0.21432212 -1.9433506 0.90457052
0.22469927 -1.9435523 0.90516478
0.23512669 -1.9453481 0.90587574
0.24482463 -1.9470947 0.90491509
0.25483102 -1.9457281 0.90567893
0.26457125 -1.9460086 0.9056173
0.27438909 -1.9460849 0.9051016
0.28480059 -1.9483948 0.90484935
0.29394498 -1.948987 0.90458828
0.34703103 -1.9484856 0.90435326
0.35476112 -1.9468615 0.906286
0.36472842 -1.9481103 0.90520298
0.3742609 -1.9488862 0.90398985
0.38115999 -1.949409 0.90599859
-0.35324663 -1.9322194 0.90281349
-0.34393224 -1.9326494 0.90448558
-0.33474788 -1.9331892 0.9054206
-0.32514358 -1.9342275 0.90519542
-0.31810001 -1.9310637 0.90468556
-0.30162501 -1.9333751 0.90094161
-0.29569629 -1.9341058 0.901281
-0.28843999 -1.9333751 0.90094161
-0.044309177 -1.9321141 0.90298384
-0.032940362 -1.932071 0.90471548
-0.025936574 -1.9317242 0.90361583
-0.015580857 -1.9313939 0.90415066
-0.004913107 -1.9319814 0.90493983
0.0045354152 -1.9330436 0.90518636
0.014732438 -1.9355073 0.90555441
0.02464339 -1.9365784 0.90484893
0.034670778 -1.9367337 0.90438473
0.044447239 -1.9361029 0.90462512
0.055774797 -1.9339553 0.90482444
0.065312736 -1.9339029 0.90534747
0.075268164 -1.9362233 0.90468127
0.085396104 -1.9372342 0.90541089
0.095264569 -1.9382679 0.90436733
0.10550352 -1.9375709 0.9050293
0.1146379 -1.9375871 0.90583068
0.12488612 -1.9373889 0.90576625
0.13499476 -1.9374313 0.90524882
0.14446571 -1.9388832 0.90523541
0.15460368 -1.9378387 0.90442157
0.16550454 -1.938292 0.90586942
0.17453068 -1.9385371 0.90576535
0.18359001 -1.9399109 0.9088195
0.19462 -1.9399109 0.90881956
0.213385 -1.9399109 0.90881956
-0.3639189 -1.925076 0.90829247
-0.35552353 -1.9251844 0.9065277
-0.34727779 -1.9265605 0.90791863
-0.31368151 -1.9261253 0.90537453
-0.30407336 -1.9247644 0.9018935
-0.29545 -1.9248981 0.90299654
-0.2854875 -1.9265349 0.90136081
-0.062944643 -1.9243304 0.90427917
