# .PCD v0.7 - Point Cloud Data file format
VERSION 0.7
FIELDS x y z
SIZE 4 4 4
TYPE F F F
COUNT 1 1 1
WIDTH 1403
HEIGHT 1
VIEWPOINT 0 0 0 0 1 0 0
POINTS 1403
DATA ascii
0.28511351 -0.76527333 0.51452452
0.29312763 -0.76542985 0.51466405
-0.093626715 -0.75521266 0.51125097
-0.085891157 -0.75438404 0.51085335
-0.074603878 -0.75291526 0.51016796
-0.064921215 -0.7561608 0.5104816
-0.05502858 -0.75524372 0.51072258
-0.045131646 -0.75519466 0.51087409
-0.034996096 -0.75550205 0.51087141
-0.02531849 -0.75532573 0.5103842
-0.016019804 -0.75566876 0.51078624
-0.0092976 -0.75920308 0.51064199
0.12696902 -0.75464201 0.51208383
0.13503912 -0.75483125 0.51237506
0.14518233 -0.75527674 0.51299548
0.15453506 -0.75538385 0.51297057
0.1650829 -0.75472808 0.51251197
0.17524913 -0.755225 0.51277143
0.18341084 -0.75605541 0.51327437
0.19509426 -0.75494683 0.51308793
0.20519717 -0.7550059 0.51318967
0.21511516 -0.75543272 0.51322848
0.22511558 -0.75490463 0.51268542
0.23501392 -0.75497895 0.51377201
0.24494936 -0.75540638 0.51448506
0.2554076 -0.75533152 0.51399565
0.26471877 -0.75469089 0.51412034
0.27520239 -0.75529122 0.51536036
0.28501621 -0.75505269 0.51571447
0.29159123 -0.75548816 0.51585132
-0.093297996 -0.74785131 0.51040989
-0.08371944 -0.74746972 0.51055413
-0.074825272 -0.74518144 0.5105679
-0.067562141 -0.74085569 0.5101586
-0.054958764 -0.74678373 0.51018399
-0.044794168 -0.74680859 0.51038975
-0.035495039 -0.74649704 0.51028234
-0.028903 -0.74834079 0.51011407
-0.0132886 -0.74436063 0.51010406
0.12697253 -0.74555206 0.51237142
0.13479899 -0.74462426 0.51312202
0.1448925 -0.74460667 0.5138244
0.15517576 -0.7448684 0.51288742
0.16515252 -0.74483269 0.51253235
0.17474498 -0.74506217 0.51325423
0.18508844 -0.74471366 0.51406217
0.19496302 -0.74495548 0.5142045
0.20468317 -0.74504489 0.51341915
0.2152992 -0.74518251 0.51349849
0.22480069 -0.74515158 0.51397061
0.23485704 -0.74533409 0.51416463
0.24428356 -0.74486738 0.51440907
0.25568533 -0.74454999 0.51468468
0.26495829 -0.74462634 0.51442128
0.27509362 -0.74477112 0.51515168
0.28478998 -0.74506265 0.51609653
0.29060251 -0.74745631 0.51604879
-0.07134667 -0.73777455 0.51021105
-0.065016553 -0.73625821 0.51038104
-0.059169002 -0.73601902 0.51012301
-0.031963859 -0.73363751 0.51104748
-0.024975812 -0.7346257 0.51174754
-0.014587843 -0.73446304 0.51159596
-0.0068135448 -0.7346229 0.5117467
0.137665 -0.73876876 0.51448268
0.14774114 -0.73586875 0.51383698
0.15489122 -0.73453915 0.51356095
0.16478911 -0.73486072 0.51360506
0.17537241 -0.73469323 0.5138666
0.18482856 -0.73526585 0.51442987
0.19547696 -0.7349478 0.51455772
0.20515938 -0.73488832 0.51365262
0.21473162 -0.73527843 0.51476264
0.22510764 -0.73504943 0.51493526
0.23495935 -0.73497277 0.5144856
0.24508105 -0.73497403 0.51464802
0.25470287 -0.73463035 0.51533127
0.26500309 -0.73499435 0.51510274
0.27463326 -0.73481363 0.51554215
0.28396115 -0.73511678 0.51529312
-0.13523117 -0.7227478 0.51018351
-0.12466444 -0.72249526 0.51028568
-0.11498 -0.72421777 0.51007473
-0.10544334 -0.72548908 0.51007414
-0.094193168 -0.72445095 0.51024574
-0.085847035 -0.72478825 0.51046109
-0.075058669 -0.72072619 0.5100711
-0.064519994 -0.72072613 0.5100711
-0.054226819 -0.72304636 0.51039129
-0.044770163 -0.72403258 0.51115614
-0.035322703 -0.7251603 0.51083517
-0.024961231 -0.72511578 0.51147693
-0.01500518 -0.72495931 0.51149178
-0.0076289852 -0.7249102 0.5117048
0.15631245 -0.72521418 0.51438916
0.16492388 -0.72440362 0.51317054
0.17504452 -0.7244274 0.5136224
0.18495771 -0.7248435 0.51354241
0.19499141 -0.72435772 0.51419723
0.20469441 -0.72488177 0.514166
0.21519557 -0.72549736 0.51461256
0.22490415 -0.72507584 0.51450264
0.23503649 -0.72467721 0.51454026
0.24481292 -0.72502577 0.51558775
0.25516567 -0.72563452 0.51611906
0.26458648 -0.72530949 0.51559311
0.27518263 -0.72453284 0.51533782
0.28249654 -0.72491568 0.51498568
-0.154 -0.71289694 0.51007473
-0.14855 -0.71289694 0.51007473
-0.13008 -0.71748692 0.51000684
-0.1249847 -0.71660882 0.51038414
-0.119875 -0.71564364 0.51036555
-0.10261819 -0.71260399 0.51031804
-0.099220991 -0.71309346 0.51021326
-0.082872994 -0.71933031 0.51020002
-0.073836461 -0.71548718 0.51069731
-0.065299399 -0.71535474 0.51151496
-0.055245042 -0.71488988 0.51118636
-0.044922855 -0.714764 0.51129955
-0.035185009 -0.71486914 0.51095891
-0.028627818 -0.7169888 0.51015443
-0.014329646 -0.71519339 0.51075822
-0.0073107509 -0.71494406 0.51111948
0.15814467 -0.71449184 0.51445019
0.16483244 -0.71493751 0.51385784
0.17482439 -0.71496224 0.51387113
0.18505245 -0.71537459 0.51452744
0.19498155 -0.71514434 0.51519233
0.20506306 -0.71470946 0.51389438
0.21507928 -0.7148335 0.51397187
0.22510572 -0.71447939 0.5143593
0.23486137 -0.7146706 0.51526368
0.24481608 -0.71443701 0.51526958
0.25495553 -0.7146821 0.51526797
0.26506367 -0.71450639 0.51510966
0.27492908 -0.7148928 0.51603425
0.28126299 -0.71601295 0.51638728
-0.13457181 -0.70231014 0.51047492
-0.113158 -0.70296866 0.5106532
-0.10516556 -0.70491987 0.51058894
-0.093609735 -0.70343995 0.51011735
-0.084568031 -0.70362914 0.51057583
-0.075531028 -0.70472115 0.51052791
-0.064138405 -0.70644307 0.51078075
-0.054799441 -0.70519054 0.51170701
-0.044963751 -0.70440638 0.51078391
-0.034796823 -0.70500785 0.5113343
-0.02481826 -0.70472282 0.5106591
-0.015404102 -0.70503175 0.51112807
-0.0069674104 -0.70444006 0.51093
0.15839 -0.70472127 0.51460183
0.16491494 -0.70480698 0.51417148
0.17555508 -0.70404875 0.51405025
0.18479984 -0.70457631 0.51401496
0.19542152 -0.70465642 0.51442748
0.20511955 -0.70478809 0.51487327
0.21469013 -0.70469666 0.51468772
0.22514088 -0.70480812 0.51560944
0.23488124 -0.70463037 0.51592118
0.24510817 -0.70466793 0.51532406
0.25517127 -0.70452625 0.51543415
0.26481178 -0.70484602 0.51614445
0.2746481 -0.70504016 0.51612478
0.28031501 -0.70862472 0.51647115
-0.16102999 -0.69450915 0.51002949
-0.15994 -0.69318479 0.51015675
-0.1337025 -0.69811839 0.51032966
-0.12409635 -0.69322342 0.51028192
-0.11441923 -0.6959343 0.51038736
-0.10418078 -0.69595182 0.51034868
-0.096749946 -0.69320619 0.51022488
-0.082677975 -0.69489521 0.51033872
-0.074794151 -0.69497114 0.51121086
-0.065424271 -0.6933412 0.51085949
-0.054885253 -0.69438863 0.51049459
-0.044949576 -0.69523305 0.5112505
-0.034855802 -0.69471043 0.51127398
-0.024741212 -0.69447184 0.51074952
-0.015006904 -0.69512701 0.51223314
-0.0051348503 -0.69533849 0.51217854
0.001005715 -0.69326067 0.51110578
0.116875 -0.69017977 0.51124084
0.15861121 -0.69485605 0.51478696
0.16502488 -0.69490039 0.51436144
0.1751689 -0.69475389 0.51480728
0.18485238 -0.6946106 0.5142954
0.1947446 -0.695041 0.51444227
0.205015 -0.69521576 0.51581246
0.21496066 -0.69503665 0.51502454
0.22493783 -0.69476998 0.51557112
0.23524128 -0.69464481 0.51579487
0.24481976 -0.69429064 0.51528662
0.2548297 -0.6946587 0.51551598
0.26533821 -0.69434744 0.51530302
0.27358806 -0.69501674 0.51594728
-0.15012001 -0.68706834 0.51003212
-0.14761201 -0.68680799 0.51005805
-0.12232223 -0.6862058 0.51011813
-0.11554038 -0.68316227 0.5101552
-0.10410662 -0.68356413 0.51042831
-0.09483625 -0.68486089 0.51080346
-0.085387319 -0.68308717 0.51052195
-0.076681495 -0.68522495 0.51042134
-0.06386552 -0.6856969 0.51072109
-0.055115253 -0.68445092 0.51073438
-0.045123022 -0.68462622 0.51107574
-0.035026133 -0.68501157 0.51185524
-0.025273357 -0.68500686 0.51192498
-0.014700943 -0.68505335 0.51268125
-0.0057458621 -0.68502957 0.5122475
0.00087913999 -0.68790138 0.51108891
0.11628962 -0.68517172 0.51313573
0.12273791 -0.68443573 0.51297575
0.15825641 -0.68474102 0.51571161
0.16504277 -0.68538898 0.51531684
0.17511633 -0.68578005 0.51616383
0.1852496 -0.68514973 0.51537585
0.19490238 -0.68492687 0.5149284
0.20503375 -0.68488538 0.5153169
0.21519816 -0.68494534 0.51529747
0.22493801 -0.68503076 0.51574922
0.2350954 -0.68505377 0.5159933
0.24511549 -0.68501806 0.51613051
0.25500575 -0.68468904 0.51544416
0.26471892 -0.68505585 0.51616234
0.27236003 -0.68591028 0.51657557
-0.157965 -0.67252243 0.51004583
-0.13217092 -0.67316675 0.510333
-0.12482612 -0.67404789 0.51048088
-0.1139891 -0.67506665 0.51029968
-0.10501001 -0.67531919 0.51109451
-0.094934627 -0.67522961 0.51138371
-0.084904082 -0.67535573 0.51115024
-0.075315617 -0.67465514 0.51072127
-0.064403459 -0.6743378 0.51107234
-0.054948747 -0.67484707 0.51191527
-0.045257982 -0.67489725 0.51237005
-0.035471357 -0.67491502 0.51118815
-0.024718823 -0.67494673 0.51163185
-0.015269081 -0.67470515 0.51178378
-0.0049568643 -0.67516804 0.51194829
0.0018005287 -0.67189765 0.51052231
0.11531858 -0.67450231 0.51408243
0.12288354 -0.67451662 0.51373833
0.15753937 -0.67473185 0.51464409
0.16526341 -0.67531919 0.51518911
0.17502852 -0.6748718 0.51498675
0.18520257 -0.67471218 0.51519597
0.19507343 -0.67506266 0.51586348
0.20504691 -0.67511392 0.51574218
0.21492881 -0.67473942 0.51638526
0.22492769 -0.67486733 0.51594096
0.23492658 -0.67484182 0.51602459
0.24512881 -0.67500603 0.51662093
0.254783 -0.675062 0.51697779
0.26492652 -0.6749745 0.51660907
0.27086556 -0.67586249 0.51634699
-0.1536382 -0.66430467 0.51036364
-0.14541686 -0.66402763 0.51050591
-0.13629845 -0.66440284 0.51039112
-0.12483757 -0.66499054 0.5106712
-0.11517444 -0.66485035 0.51037568
-0.10522066 -0.66522872 0.5108645
-0.095622785 -0.66578227 0.51067984
-0.084740058 -0.66478193 0.51034933
-0.074694015 -0.66489989 0.51046044
-0.065192029 -0.66507298 0.5112552
-0.055017795 -0.66513228 0.51222104
-0.044567935 -0.66567016 0.5132581
-0.035029996 -0.66502583 0.51157206
-0.024937157 -0.66484046 0.51077229
-0.01491747 -0.66514868 0.51178104
-0.0048459531 -0.66507804 0.51219189
0.0022475326 -0.66498977 0.51204216
0.10908667 -0.66332203 0.51387149
0.11509187 -0.66512132 0.51438928
0.12315962 -0.66494519 0.51415193
0.15601312 -0.66522682 0.51401162
0.16487658 -0.66484761 0.51479608
0.1750751 -0.66488981 0.51519412
0.18496886 -0.66463417 0.51616609
0.1949852 -0.66441214 0.51587158
0.20487162 -0.66488302 0.51611668
0.21498984 -0.6647355 0.51666594
0.22508292 -0.66456532 0.51635361
0.23455119 -0.6642884 0.51645947
0.24515511 -0.66482115 0.51653093
0.25520095 -0.66471159 0.51659274
0.26451498 -0.66525018 0.5167436
-0.15310112 -0.65530175 0.51039958
-0.1450222 -0.65473777 0.51044971
-0.13499002 -0.65482312 0.51042038
-0.12497276 -0.6548512 0.51045668
-0.11494832 -0.65478528 0.51062948
-0.10608076 -0.65436143 0.51042461
-0.094239756 -0.65440196 0.51065546
-0.084924951 -0.65519989 0.5114367
-0.074883714 -0.65527833 0.51172811
-0.06511946 -0.65508282 0.51145202
-0.055073768 -0.65467191 0.51132423
-0.045182284 -0.6545788 0.51096088
-0.034793604 -0.65490228 0.51179808
-0.025066638 -0.65543985 0.5115757
-0.014721686 -0.65516669 0.51214504
-0.0051806984 -0.6551773 0.51263565
0.0025757456 -0.65563893 0.51336116
0.10858594 -0.65534806 0.51441282
0.11489339 -0.65462327 0.51424497
0.12395866 -0.65420032 0.51472932
0.14931999 -0.65232021 0.51442444
0.1551047 -0.65466708 0.51462102
0.16516407 -0.65518904 0.51599419
0.17480001 -0.65526348 0.51614946
0.18516435 -0.65476918 0.51660126
0.19503336 -0.65515578 0.51665384
0.20497513 -0.65504932 0.51627064
0.21493268 -0.65472889 0.51588207
0.22515629 -0.65508771 0.51690322
0.23506284 -0.65461159 0.51701015
0.24496177 -0.65474755 0.51693499
0.25493011 -0.65502161 0.51739806
0.26316273 -0.65530694 0.51754487
-0.15232646 -0.64443213 0.51032323
-0.14476123 -0.6448226 0.51048177
-0.13496642 -0.64456236 0.51048642
-0.12508245 -0.64469218 0.51060063
-0.11502819 -0.64478129 0.51073986
-0.104999 -0.64547867 0.51122326
-0.094615117 -0.64609021 0.5118773
-0.085117631 -0.64514476 0.51201737
-0.074974783 -0.64504373 0.51184499
-0.064837232 -0.64528745 0.51218849
-0.055187341 -0.6448158 0.51162815
-0.045024924 -0.64512485 0.51153564
-0.03513658 -0.64499533 0.51169962
-0.024888476 -0.64475292 0.51211792
-0.015099827 -0.64522064 0.51254916
-0.0048166476 -0.64492512 0.51288921
0.0025608793 -0.64447635 0.5131771
0.11543395 -0.64759654 0.51582593
0.12380999 -0.64783156 0.51731718
0.14751324 -0.64428669 0.51522577
0.15468575 -0.64509183 0.51561433
0.16486041 -0.64523071 0.51575321
0.17495044 -0.64500237 0.51523811
0.18524694 -0.64478141 0.51570636
0.1952403 -0.64487886 0.51654285
0.20523624 -0.64497101 0.51649874
0.21502922 -0.64483219 0.51664966
0.22470874 -0.64488685 0.51675493
0.23440363 -0.64503664 0.51749027
0.24564904 -0.64485121 0.51775885
0.2549201 -0.64480132 0.51790947
0.26203704 -0.64536297 0.5184871
-0.1516123 -0.63619262 0.51146567
-0.14499713 -0.63529545 0.51087469
-0.13508207 -0.63524824 0.51095909
-0.12495168 -0.63520432 0.51142585
-0.11509677 -0.63512844 0.51154363
-0.10499457 -0.63489056 0.51135135
-0.095941633 -0.63411677 0.51081824
-0.084417552 -0.6341567 0.51098901
-0.075114422 -0.63536125 0.51186097
-0.064928852 -0.63470697 0.51165032
-0.054849673 -0.63529021 0.51256227
-0.044868413 -0.63504821 0.51229137
-0.034849249 -0.63536745 0.51278841
-0.024910349 -0.63524985 0.51304543
-0.014913535 -0.63487566 0.51288462
-0.0054208916 -0.63519573 0.51378465
0.0045808139 -0.63532948 0.51361465
0.010217 -0.634516 0.51053399
0.13786666 -0.63066918 0.5136494
0.14549549 -0.63452381 0.51504147
0.15549225 -0.6357742 0.51598722
0.16496435 -0.63531679 0.51564372
0.17505987 -0.63521796 0.51551282
0.1848084 -0.63469344 0.51579279
0.19498727 -0.63496238 0.51654559
0.20482704 -0.63493031 0.51700461
0.21499065 -0.63500714 0.51725155
0.22501712 -0.63477474 0.51675516
0.23510891 -0.63479757 0.51712167
0.24465793 -0.63505203 0.51776403
0.25489053 -0.63514459 0.51839918
0.26069143 -0.63654661 0.51815063
-0.15064 -0.6255787 0.51056045
-0.14507778 -0.62469769 0.51056993
-0.13504581 -0.62473387 0.51062119
-0.12506442 -0.62460715 0.51118499
-0.11504767 -0.62506354 0.51188785
-0.10498652 -0.62470388 0.51165342
-0.094908193 -0.62493718 0.51164138
-0.085112162 -0.62529212 0.51176691
-0.074834257 -0.62480277 0.51202065
-0.065134227 -0.62475288 0.51202267
-0.055188295 -0.62502384 0.51269275
-0.04500122 -0.6247595 0.51209712
-0.0351643 -0.6252268 0.51310748
-0.025123429 -0.62511748 0.51321155
-0.015273271 -0.62533957 0.51399636
-0.0053547267 -0.62553507 0.5153228
0.0057146009 -0.62594825 0.51368386
0.011035763 -0.62159216 0.51238
0.12822272 -0.62137848 0.51289666
0.13555726 -0.62494326 0.5149231
0.1450398 -0.62514949 0.5163331
0.15489165 -0.62492692 0.51647955
0.16513695 -0.62564015 0.5167132
0.174891 -0.62498915 0.51677167
0.18504839 -0.62503272 0.51725882
0.19492786 -0.625112 0.51724201
0.20513766 -0.62475586 0.51724803
0.21479031 -0.62465787 0.5174576
0.22514974 -0.62492836 0.51753658
0.23491481 -0.62525845 0.51798469
0.24496025 -0.62500077 0.51773226
0.25433427 -0.62517524 0.51825428
-0.14469694 -0.61475366 0.51077038
-0.1350258 -0.61492801 0.51124537
-0.12513743 -0.61473107 0.51152277
-0.11505936 -0.6148929 0.511738
-0.10496844 -0.614905 0.51197034
-0.094880842 -0.61496067 0.51195455
-0.084959067 -0.61478317 0.51197392
-0.074975006 -0.61490643 0.51250774
-0.064874791 -0.61497086 0.51302958
-0.054989956 -0.61453736 0.51289135
-0.045095611 -0.61512977 0.51288664
-0.034725241 -0.6144858 0.51301146
-0.025046963 -0.61476886 0.5135681
-0.015151597 -0.61509484 0.51436734
-0.0056557627 -0.61557746 0.51482135
0.0088380948 -0.6158452 0.51575965
0.0114975 -0.61585999 0.51495606
0.097159259 -0.61414957 0.5140447
0.10507352 -0.61539108 0.51461369
0.1147649 -0.61382926 0.51571047
0.12514716 -0.61509049 0.51497924
0.13484384 -0.61475259 0.51580149
0.1450333 -0.61469263 0.51641554
0.1547655 -0.6156292 0.51705503
0.16627541 -0.61474013 0.51724315
0.17497292 -0.61507201 0.51718068
0.184992 -0.61473203 0.51664221
0.19495961 -0.61503851 0.51703328
0.20482996 -0.61557543 0.51813924
0.21514925 -0.6153084 0.51813227
0.22487722 -0.61496156 0.51780719
0.23510732 -0.61485547 0.51773328
0.24506842 -0.61498815 0.51841456
0.25268874 -0.61526835 0.51829427
-0.14425159 -0.60553962 0.51166952
-0.13485923 -0.60505289 0.51184249
-0.12506816 -0.60514629 0.51207298
-0.1149412 -0.60497797 0.51188928
-0.10502583 -0.60488349 0.51241392
-0.095141679 -0.60495442 0.51213008
-0.084920436 -0.6052649 0.5126664
-0.075324357 -0.60515475 0.51288849
-0.06572549 -0.60652494 0.51335335
-0.054801088 -0.60570735 0.51416063
-0.044785764 -0.60486907 0.51330376
-0.035183366 -0.60486656 0.51410753
-0.025015041 -0.60510629 0.51401192
-0.014773232 -0.60466111 0.51357937
-0.0048804302 -0.60389978 0.51263344
0.0039151548 -0.60389745 0.51200849
0.012393618 -0.6043818 0.51291823
0.089183994 -0.60114932 0.51202857
0.095124148 -0.60466397 0.51529896
0.10495123 -0.60473853 0.51612025
0.11501734 -0.60515535 0.51651728
0.12498663 -0.60467565 0.51601088
0.13500632 -0.60477406 0.51617312
0.14501606 -0.60463542 0.51625907
0.15469068 -0.60494292 0.51689178
0.16509308 -0.60502285 0.51716334
0.17519106 -0.60532385 0.51734042
0.18501048 -0.60528857 0.51705581
0.194911 -0.60480559 0.51681352
0.20487635 -0.60469711 0.51680136
0.21533787 -0.60467422 0.51742482
0.22504409 -0.60508353 0.51801461
0.23487107 -0.60508305 0.5186398
0.24493468 -0.60477072 0.51877081
0.251623 -0.60646057 0.51906496
-0.14319403 -0.59503138 0.51160365
-0.13511586 -0.59500879 0.51186639
-0.12496311 -0.59494716 0.51201457
-0.11510646 -0.59498924 0.51219171
-0.10502445 -0.59494072 0.5123142
-0.094767131 -0.59536839 0.51263595
-0.085013382 -0.59500474 0.51297039
-0.074940674 -0.59487081 0.51281518
-0.066670045 -0.59383416 0.51254803
-0.053022504 -0.59402162 0.51206529
-0.044964679 -0.5952667 0.51333332
-0.034993004 -0.59523845 0.51420027
-0.02492577 -0.5950349 0.51321614
-0.015162976 -0.59493488 0.51366383
-0.005095623 -0.59562266 0.51424509
0.005243246 -0.59462106 0.51403254
0.014583544 -0.59425026 0.51316428
0.021524765 -0.59147161 0.51103204
0.086891681 -0.59331256 0.513412
0.094986878 -0.59514725 0.5161888
0.10496877 -0.59505194 0.51625448
0.1151617 -0.59492141 0.51616305
0.12513621 -0.59543514 0.51692176
0.13496573 -0.59524965 0.5170173
0.14497365 -0.59522164 0.51725221
0.15489142 -0.59528214 0.5171302
0.16488078 -0.59473568 0.51705134
0.1754024 -0.59479082 0.51776993
0.18498003 -0.59520382 0.51793754
0.19507518 -0.5951184 0.5179584
0.20499435 -0.59506625 0.51752144
0.21507038 -0.59565985 0.51873773
0.22503819 -0.59562778 0.51936412
0.23532997 -0.59569353 0.5191614
0.2448213 -0.59503251 0.51883519
0.250462 -0.59835899 0.51880985
-0.1424609 -0.58505756 0.51201785
-0.13492875 -0.5850336 0.51223862
-0.12497675 -0.58485782 0.51211321
-0.11483674 -0.58520794 0.51240194
-0.10504095 -0.58520371 0.51230752
-0.094955809 -0.58530438 0.51276004
-0.085071184 -0.58506751 0.51328921
-0.074943408 -0.58512259 0.51329166
-0.064996615 -0.58469367 0.51356512
-0.054798111 -0.58537173 0.51312417
-0.045170818 -0.58510691 0.51334333
-0.034916013 -0.5848015 0.51297593
-0.024909083 -0.58494651 0.51340657
-0.014886209 -0.58521748 0.51441616
-0.0049952716 -0.58520091 0.5145151
0.0044310978 -0.585392 0.51614571
0.015543999 -0.58529609 0.51494849
0.024718488 -0.5850203 0.51377934
0.034447558 -0.58213753 0.51238024
0.043631908 -0.58079267 0.51127517
0.067761198 -0.58160543 0.51233357
0.075656608 -0.58361554 0.51384413
0.084626399 -0.58515519 0.51532024
0.094661802 -0.58493209 0.51594287
0.10511541 -0.58477896 0.51643968
0.11500642 -0.58477694 0.51670671
0.1249795 -0.58472079 0.51668555
0.13513608 -0.58486396 0.51711279
0.14479773 -0.58535606 0.5176087
0.15506063 -0.58486056 0.51724684
0.16483326 -0.58505893 0.51779586
0.17501131 -0.5852381 0.5181796
0.18502302 -0.58518475 0.51812685
0.19502722 -0.58482933 0.51829958
0.204963 -0.58490425 0.51835847
0.21498179 -0.58412093 0.51820356
0.22446899 -0.58453012 0.51910108
0.23555212 -0.58465904 0.51887637
0.24368043 -0.58501261 0.51875943
-0.14166255 -0.57540101 0.51223022
-0.13501161 -0.57549345 0.51263165
-0.12497224 -0.57505924 0.51245904
-0.11492973 -0.57487506 0.51243651
-0.10495202 -0.57502908 0.51273036
-0.095025122 -0.57469249 0.51255411
-0.084968239 -0.57461047 0.51267219
-0.075060152 -0.5748145 0.51305616
-0.064915076 -0.5746851 0.51320642
-0.055032268 -0.57542366 0.5141139
-0.044935331 -0.57487744 0.51356131
-0.035002731 -0.57489651 0.5140627
-0.025122348 -0.57535678 0.51476485
-0.015068589 -0.57509041 0.51462215
-0.0048576333 -0.57477385 0.5147866
0.0048675966 -0.57463634 0.51460969
0.015078124 -0.57502896 0.51466829
0.025225833 -0.57509708 0.51581585
0.034940358 -0.57571155 0.51572824
0.045318451 -0.57580912 0.5145452
0.055052269 -0.57579285 0.51413971
0.064629607 -0.57612169 0.51504248
0.074874245 -0.57524866 0.51697195
0.085057475 -0.57469469 0.51656383
0.09495841 -0.57503241 0.51714557
0.10484834 -0.57513839 0.51730776
0.11505569 -0.57487518 0.51714766
0.12495486 -0.57521152 0.51741582
0.13493879 -0.57481122 0.51697665
0.14517148 -0.57479292 0.51696938
0.15493542 -0.57513821 0.51798362
0.16518988 -0.57524765 0.51839328
0.17488191 -0.57483679 0.51772958
0.18505169 -0.57504141 0.51785213
0.19501153 -0.57465899 0.51865131
0.20518 -0.57485396 0.51860309
0.21499 -0.57534319 0.51936412
0.22504859 -0.57515967 0.51924968
0.23508537 -0.57559502 0.51927334
0.24242751 -0.57593238 0.51893175
-0.14081961 -0.56498688 0.51248389
-0.13495681 -0.56440508 0.51235265
-0.12516351 -0.56487197 0.51251745
-0.11520364 -0.56499964 0.51278198
-0.10505565 -0.56462413 0.51267534
-0.095062852 -0.56465423 0.51305306
-0.085068807 -0.56459659 0.51278335
-0.074989147 -0.56484622 0.51294982
-0.065174028 -0.56471658 0.51345974
-0.055100519 -0.56478244 0.51388937
-0.044874869 -0.56504536 0.5145427
-0.035146404 -0.56493437 0.51506191
-0.024787065 -0.56493294 0.51557809
-0.014784578 -0.56554258 0.51527667
-0.0053661228 -0.56505477 0.51522839
0.0049842759 -0.56463832 0.51468897
0.014858835 -0.56457347 0.51500255
0.024963006 -0.56472188 0.5156514
0.03535353 -0.56465352 0.51570076
0.044933565 -0.56477684 0.51583934
0.055141456 -0.56501222 0.51640421
0.064887367 -0.56478775 0.51644623
0.075076737 -0.56474435 0.51628655
0.08502847 -0.56485391 0.51675701
0.095032305 -0.5648827 0.51717985
0.10510389 -0.56483161 0.51707947
0.11500037 -0.56556052 0.51781601
0.12503406 -0.56534773 0.51781815
0.13492571 -0.56525618 0.51792055
0.1448984 -0.56537586 0.51819909
0.15506189 -0.56534624 0.5187251
0.16465265 -0.56526005 0.51832664
0.17470835 -0.5662775 0.51890349
0.18533961 -0.56564426 0.51896346
0.19502446 -0.56480366 0.51908147
0.20482589 -0.56494671 0.51858157
0.21491148 -0.56509942 0.5191834
0.22484645 -0.56480587 0.51918638
0.23468469 -0.5654496 0.51918936
0.24132 -0.56780982 0.51902878
-0.140255 -0.55718565 0.51364446
-0.13495572 -0.55488306 0.51329631
-0.1249975 -0.55505306 0.51329494
-0.11509427 -0.55454552 0.51311445
-0.10487057 -0.55494475 0.51342887
-0.095187865 -0.55501473 0.5138948
-0.084821716 -0.5551157 0.51337188
-0.075762428 -0.55307454 0.51376784
-0.064668082 -0.55455881 0.51390189
-0.054914381 -0.55488139 0.51422846
-0.045442831 -0.55492365 0.51465249
-0.034784898 -0.55521935 0.51472718
-0.025255136 -0.55460119 0.51480955
-0.015076354 -0.55445546 0.51460832
-0.0051125218 -0.55489951 0.51532477
0.0047361124 -0.55485791 0.51557368
0.014787636 -0.55525219 0.51626396
0.024673747 -0.55511129 0.51613903
0.034622598 -0.55500335 0.51570249
0.045001052 -0.55508798 0.51603669
0.054744419 -0.55501306 0.51666754
0.065123715 -0.55521262 0.51728183
0.07505811 -0.55560577 0.51685679
0.085034311 -0.55523509 0.51717091
0.094987385 -0.55556953 0.51787591
0.10510295 -0.55516082 0.51764321
0.11487371 -0.55481702 0.51740402
0.12489583 -0.55503112 0.51753682
0.13498306 -0.55486768 0.51768643
0.14509161 -0.55488664 0.51808256
0.1551318 -0.55464643 0.51835054
0.16495566 -0.55469769 0.51811284
0.17465964 -0.5543955 0.51791704
0.18523596 -0.55465901 0.51887244
0.19492973 -0.55437654 0.51877922
0.2043753 -0.55521107 0.51906735
0.21507217 -0.55372357 0.51954365
0.22498427 -0.55561644 0.51953632
0.23231624 -0.55810285 0.51962548
-0.13421234 -0.54518908 0.51319754
-0.12495483 -0.54507953 0.51358008
-0.11501909 -0.54493636 0.51364732
-0.10539635 -0.54507023 0.51394802
-0.094770305 -0.54474348 0.51322371
-0.084936522 -0.54497838 0.51380569
-0.07501705 -0.54509282 0.51448023
-0.065301225 -0.54462683 0.51409757
-0.054850738 -0.54497933 0.51460809
-0.044642281 -0.54475319 0.51441455
-0.034944952 -0.54491317 0.51415277
-0.024996296 -0.54500842 0.51460981
-0.015135637 -0.54537553 0.51538575
-0.0053229886 -0.54504913 0.51555622
0.0047606956 -0.54498744 0.5155707
0.015035648 -0.54484826 0.51607573
0.02526992 -0.54496479 0.51638591
0.035287783 -0.5451237 0.5162943
0.04492221 -0.545075 0.51613182
0.055212017 -0.54517049 0.51680517
0.065061726 -0.54471678 0.51692033
0.075041525 -0.54495895 0.51663744
0.08504568 -0.5444535 0.51697713
0.095033117 -0.5446462 0.51715863
0.10468495 -0.5447461 0.51736975
0.11523645 -0.54514003 0.51793164
0.1250042 -0.5453155 0.51803499
0.13504043 -0.54521912 0.51829714
0.14487427 -0.54510802 0.51848423
0.15474243 -0.54505104 0.51855797
0.16523968 -0.544985 0.5189032
0.17514032 -0.54527545 0.51857853
0.18404502 -0.54601365 0.51947832
0.1949463 -0.54503238 0.51950365
0.20499946 -0.54464334 0.51912022
0.21437125 -0.5452925 0.51914185
0.22376131 -0.54708821 0.5197041
0.23262033 -0.5430184 0.51982009
-0.13351762 -0.53505456 0.51376742
-0.1249937 -0.53474134 0.51391083
-0.11511307 -0.53505683 0.51438731
-0.10485172 -0.53475612 0.51403141
-0.094969764 -0.53494453 0.51402652
-0.085227005 -0.53506631 0.51460558
-0.074939623 -0.53499341 0.51457763
-0.064921305 -0.53520113 0.5148707
-0.054811288 -0.53494662 0.51473039
-0.045121957 -0.53500295 0.5146665
-0.035034984 -0.53536826 0.51510137
-0.02485151 -0.53494179 0.51537538
-0.015018825 -0.53485155 0.51515728
-0.0050568939 -0.53513795 0.51581633
0.0050392277 -0.53511792 0.51541227
0.014994225 -0.53504628 0.51632673
0.025102863 -0.53546894 0.51693201
0.034987703 -0.53483272 0.51689386
0.045102656 -0.53508782 0.51708376
0.054962322 -0.53493571 0.51705694
0.065036461 -0.5351193 0.51749605
0.075009331 -0.53525811 0.51765323
0.084913038 -0.53474611 0.51747727
0.094996579 -0.53518993 0.51781732
0.10491434 -0.53516912 0.51799625
0.11502058 -0.53505069 0.51827359
0.12492841 -0.5347212 0.51856059
0.13467717 -0.53512424 0.51889485
0.14556555 -0.53509265 0.51881379
0.15505426 -0.53562993 0.51892346
0.16495492 -0.53535569 0.51919103
0.17491692 -0.53491914 0.51902169
0.18512867 -0.53465217 0.51891798
0.19506614 -0.53612494 0.51969844
0.2044021 -0.53681892 0.51946908
0.21348181 -0.53672069 0.51989895
0.22193874 -0.53331715 0.5198189
0.23349001 -0.539123 0.51979232
-0.1327907 -0.5251562 0.51446331
-0.12494048 -0.52483416 0.51431131
-0.11502576 -0.52491128 0.51421124
-0.104844 -0.52490556 0.51445693
-0.095138483 -0.52494013 0.51461697
-0.084853806 -0.52510971 0.51451504
-0.075038031 -0.52496916 0.51474208
-0.064995974 -0.52463597 0.51449394
-0.055163652 -0.52506775 0.51506072
-0.044965487 -0.52534401 0.51534438
-0.03502534 -0.524921 0.51531637
-0.025098395 -0.52518928 0.51586139
-0.015161644 -0.52497506 0.51604611
-0.0049520647 -0.5248841 0.51593709
0.0049872557 -0.52528769 0.51624042
0.015035525 -0.52529335 0.5165236
0.024898667 -0.52488118 0.51632166
0.034853246 -0.52513206 0.51701319
0.044909231 -0.52477896 0.51684201
0.055175859 -0.52500939 0.51707196
0.065038547 -0.52469683 0.51711869
0.075147256 -0.52493584 0.51803452
0.084942184 -0.52474338 0.5178315
0.095001489 -0.52518713 0.51754433
0.10491431 -0.52520406 0.51817894
0.11520991 -0.52455765 0.51808894
0.12579389 -0.52509856 0.51912296
0.13464589 -0.52529436 0.51911509
0.1442984 -0.52515578 0.51956123
0.1556756 -0.52168161 0.51984286
0.16676541 -0.52514517 0.51971108
0.17486292 -0.52576989 0.51960784
0.18435812 -0.5263266 0.51959503
0.19499806 -0.52461642 0.51987791
0.20467232 -0.52240062 0.51969868
0.21188049 -0.52251542 0.51989019
0.22975501 -0.52395713 0.51984882
0.23049141 -0.52478772 0.51971769
-0.13200627 -0.51539642 0.51478136
-0.12509552 -0.51513821 0.51462042
-0.11496197 -0.51496583 0.51457274
-0.10512029 -0.51485479 0.51464266
-0.094811462 -0.51502442 0.51489526
-0.085101679 -0.51501554 0.5151096
-0.075027898 -0.51474833 0.51519448
-0.065107547 -0.5151453 0.51540112
-0.054911949 -0.51530248 0.51542699
-0.045066319 -0.51483685 0.51522374
-0.034961894 -0.51539975 0.51580632
-0.024878684 -0.51489621 0.51604629
-0.015003253 -0.5149129 0.51602274
-0.0051194183 -0.51505905 0.51643872
0.0049221506 -0.5150134 0.51668096
0.014383932 -0.51481026 0.51600897
0.025293836 -0.51500905 0.51729393
0.034978494 -0.51479661 0.51729035
0.044991296 -0.5151639 0.51692265
0.055007927 -0.51496768 0.51743668
0.064805664 -0.51518077 0.51807284
0.074785545 -0.51473546 0.51779413
0.085045978 -0.51488006 0.5183543
0.095429637 -0.51564747 0.51793516
0.10486313 -0.51511407 0.51828825
0.11517856 -0.51541823 0.51881951
0.1248182 -0.51505506 0.51865995
0.13476913 -0.51403916 0.51896471
0.1450617 -0.51464653 0.5191921
0.15498333 -0.51453865 0.51914591
0.16527438 -0.51442569 0.51968175
0.17295949 -0.51447165 0.51971358
0.1971385 -0.5181334 0.51975441
0.20490594 -0.51838607 0.51960158
0.21295637 -0.51812834 0.51983094
0.22368333 -0.51760417 0.51991141
-0.13127324 -0.50556487 0.51522493
-0.12481896 -0.50514418 0.5150581
-0.11517206 -0.50512469 0.51514709
-0.10498802 -0.50488168 0.5148086
-0.095052116 -0.50503182 0.51517451
-0.085125342 -0.50505632 0.51553583
-0.075007059 -0.5051077 0.51517355
-0.064731613 -0.50493467 0.51531529
-0.055037949 -0.50508815 0.51564234
-0.044982582 -0.50525457 0.51591933
-0.035025932 -0.50481725 0.51572919
-0.025175838 -0.50501907 0.51641923
-0.014657141 -0.50522941 0.51640129
-0.0051336465 -0.50497359 0.51629966
0.0050185509 -0.50477272 0.51659912
0.014549833 -0.50444704 0.51724291
0.024974452 -0.50514579 0.51787871
0.035000589 -0.50536209 0.51784319
0.045104317 -0.50564069 0.51764762
0.054806888 -0.50528777 0.51812392
0.065146692 -0.50528562 0.51853007
0.075037226 -0.50497961 0.51766622
0.084858499 -0.50526345 0.51857799
0.095182076 -0.5054161 0.51917732
0.10500041 -0.50527978 0.5186761
0.11514095 -0.5049997 0.51859975
0.12512982 -0.5059334 0.51896787
0.13469094 -0.50744015 0.51907468
0.14580216 -0.50749052 0.51961291
0.15516779 -0.50613725 0.51957279
0.16500501 -0.50631827 0.51969302
0.17372252 -0.50661004 0.51971281
-0.130576 -0.49861985 0.51517475
-0.12510973 -0.49864635 0.51510578
-0.11436274 -0.49855384 0.51485378
-0.10504194 -0.49858001 0.51493168
-0.095136695 -0.49857759 0.51488221
-0.084708646 -0.49865669 0.51493835
-0.075051293 -0.49856314 0.51452595
-0.065838076 -0.49883997 0.51531166
-0.054736383 -0.49923867 0.51615292
-0.045294151 -0.49920088 0.51611382
-0.035196941 -0.49937534 0.51658225
-0.024074059 -0.49943492 0.51664394
-0.015488436 -0.49931011 0.51625407
-0.0045693521 -0.49928346 0.51626992
0.0037501447 -0.49934569 0.51641071
0.011457999 -0.499598 0.51699138
0.02675443 -0.49947146 0.51664382
0.035162073 -0.49937132 0.51675576
0.044710003 -0.49945265 0.51676828
0.053899396 -0.49968982 0.51708686
0.070239998 -0.49976504 0.51716501
0.1221091 -0.64666134 0.520998
0.22799666 -0.59031981 0.52003306
0.23261435 -0.5922814 0.52010846
0.22853166 -0.58857554 0.5202567
0.2316125 -0.58882427 0.52029961
0.22984 -0.57040864 0.52005678
0.23181555 -0.57217056 0.52026975
0.17845833 -0.56375664 0.52039886
0.18137935 -0.56354588 0.52037823
0.21800442 -0.56071335 0.52007532
0.23843527 -0.56237715 0.52032077
0.24085598 -0.56328326 0.52041274
0.20857817 -0.55345368 0.52017921
0.21492516 -0.556651 0.52047014
0.22602248 -0.5539338 0.52017766
0.23525731 -0.55453318 0.52046961
0.24019 -0.55904907 0.52055341
0.18585512 -0.54512113 0.52024472
0.194085 -0.54259807 0.52004564
0.204365 -0.54906285 0.52000582
0.21750863 -0.54196954 0.52050573
0.22521435 -0.54433823 0.52042013
0.23388259 -0.54661906 0.52041721
0.14974 -0.53089428 0.52002418
0.15460578 -0.53129894 0.52026266
0.16082799 -0.53062755 0.5201745
0.19513619 -0.53381926 0.52012533
0.20587498 -0.53261864 0.52032757
0.21493965 -0.53466284 0.52039379
0.22536802 -0.53506887 0.52046537
0.23201829 -0.53547215 0.52056849
0.12336498 -0.52697074 0.52026433
0.13696697 -0.52133322 0.52025092
0.14860223 -0.52504891 0.52017874
0.15488693 -0.5262922 0.5207091
0.16296965 -0.52473086 0.52028906
0.17625643 -0.52153635 0.5203926
0.18564926 -0.52198178 0.52043307
0.19488308 -0.52540886 0.52021927
0.20508534 -0.52714205 0.52040166
0.21572495 -0.52556622 0.5205003
0.2249724 -0.52542466 0.52088934
0.23098001 -0.5284878 0.52044404
0.109805 -0.51301754 0.52009344
0.11245637 -0.51279998 0.52019751
0.12986501 -0.51904404 0.52005923
0.13450599 -0.51877034 0.52019054
0.154035 -0.51950437 0.52000844
0.16387631 -0.51659083 0.52017188
0.17655437 -0.51551116 0.52038354
0.18500628 -0.51518637 0.52079916
0.19468305 -0.51442206 0.52063823
0.2051637 -0.51362395 0.52092648
0.21526445 -0.51409644 0.5206185
0.22436917 -0.51497006 0.52063811
0.12863 -0.50331801 0.52020466
0.13551325 -0.50407684 0.52021164
0.14455213 -0.50560153 0.52032006
0.15092251 -0.50593519 0.52011049
0.16779456 -0.50404567 0.52011114
0.17606755 -0.5056048 0.52022028
0.18498328 -0.50661802 0.5206449
0.19448091 -0.50730354 0.52147102
0.20549884 -0.50691062 0.52133322
0.21491745 -0.5066725 0.5212152
0.22324918 -0.50698769 0.52144068
0.048942 -1.0636002 0.56951523
0.076282002 -1.0610909 0.5695821
0.017920401 -1.0735689 0.57914269
0.02038 -1.0700064 0.57722276
0.025423935 -1.0668141 0.57648033
0.034694273 -1.0664252 0.57646453
0.044669136 -1.0666516 0.57478398
0.054925624 -1.0625243 0.573542
0.063804246 -1.061456 0.5747577
0.075889692 -1.0610712 0.57229352
0.080298997 -1.0634832 0.5737021
0.057533 -1.0595529 0.57016969
0.068295933 -1.0587202 0.57446903
0.073112458 -1.0593166 0.57232404
0.035771854 -1.0650381 0.58064705
0.042252 -1.0677201 0.581164
0.062895998 -1.0620432 0.58003235
-0.1928 -1.8005607 0.62951207
-0.19099666 -1.7964607 0.62676167
-0.22026999 -1.8180325 0.63966417
-0.21529348 -1.8146827 0.63546717
-0.20495218 -1.8155898 0.63565028
-0.19757284 -1.8162838 0.63558942
-0.19275001 -1.8049204 0.63585156
-0.19099 -1.7997384 0.63322353
-0.22087 -1.8209865 0.64477837
-0.21483898 -1.8217989 0.64728844
-0.20604429 -1.8218012 0.64824468
-0.19798 -1.8223207 0.64646232
-0.22071999 -1.8184513 0.64640987
-0.2155425 -1.8182646 0.64465028
-0.20460537 -1.8183717 0.64368385
-0.19549365 -1.8153828 0.64535755
-0.19227999 -1.8073424 0.64498699
-0.22192501 -1.8239849 0.65705377
-0.21469817 -1.8226258 0.65498072
-0.20639078 -1.8211843 0.6545465
-0.19828166 -1.8215147 0.65445548
-0.22116999 -1.8192893 0.65228617
-0.216965 -1.8169161 0.65470278
-0.20416601 -1.8188699 0.65397453
-0.19517668 -1.8148749 0.65491849
-0.18519539 -1.8130898 0.65790582
-0.17951 -1.8112952 0.65552646
-0.19257499 -1.8092771 0.65632069
-0.18342 -1.8092394 0.65885639
-0.17817 -1.8070824 0.65502149
-0.21605201 -1.8318453 0.66461414
-0.21369077 -1.8240438 0.66362083
-0.20532715 -1.821225 0.6611706
-0.19818 -1.8201575 0.66077852
-0.21469499 -1.8159124 0.66435504
-0.20528923 -1.8150897 0.66365695
-0.19802 -1.8144817 0.66254818
-0.186115 -1.8107007 0.66143906
-0.22041999 -1.8033779 0.66587633
-0.21463889 -1.8056082 0.66363847
-0.2046642 -1.8040158 0.6662758
-0.19497621 -1.8038847 0.66426677
-0.18485843 -1.8058901 0.66428113
-0.17901857 -1.8061364 0.66529655
-0.22026999 -1.7995727 0.6695649
-0.21517752 -1.7941689 0.66476691
-0.20615998 -1.7983263 0.66881037
-0.19295898 -1.7966721 0.66746742
-0.18593363 -1.7981089 0.6671772
-0.17914501 -1.7988873 0.66829562
-0.21222834 -1.7858629 0.66616815
-0.20937 -1.7883835 0.66846263
-0.21046001 -1.7790983 0.66903532
-0.37606999 -1.9506973 0.67985868
-0.368745 -1.9506973 0.67985868
-0.35723999 -1.9506973 0.67985868
-0.31540999 -1.9506973 0.67985868
-0.30914 -1.9506973 0.67985868
-0.35255 -1.947803 0.67883581
-0.34622142 -1.9454868 0.67864478
-0.33835751 -1.9437494 0.67850149
-0.32029 -1.9410975 0.67865646
-0.31646749 -1.9440238 0.67805684
-0.27403998 -1.9450861 0.67850488
-0.26510748 -1.9416466 0.67776722
-0.33256602 -1.9351679 0.67615449
-0.32286286 -1.9349393 0.6768021
-0.31983 -1.9393864 0.67590785
-0.22057 -1.8010232 0.6721645
-0.19736999 -1.8004148 0.67809975
-0.18265714 -1.8029116 0.67609531
-0.1798775 -1.8031355 0.67602456
-0.22036999 -1.7973194 0.67486459
-0.21645999 -1.7902639 0.67017579
-0.20485371 -1.7968246 0.67513782
-0.19508696 -1.7975349 0.67504233
-0.18645555 -1.7979908 0.67489791
-0.21556538 -1.7855985 0.67407197
-0.20927668 -1.7850355 0.67229921
-0.21274874 -1.7756832 0.67637551
-0.20898665 -1.7746359 0.6730907
-0.2087575 -1.765143 0.67514962
-0.20778 -1.7593619 0.67739934
-0.38218999 -1.9589581 0.68598992
-0.37516633 -1.9528174 0.6851511
-0.3647669 -1.9531274 0.68489337
-0.35916004 -1.95057 0.68558568
-0.3134757 -1.9516183 0.68388748
-0.30512407 -1.9526798 0.68467718
-0.29543763 -1.9546924 0.68557787
-0.28583845 -1.9533491 0.68488109
-0.37399 -1.9487641 0.68740648
-0.36770499 -1.9489032 0.68644494
-0.35467777 -1.9473354 0.68526977
-0.34406087 -1.9442087 0.6851415
-0.33664125 -1.9424372 0.68479115
-0.32223627 -1.9411167 0.68621618
-0.31610808 -1.9465684 0.68544006
-0.30853999 -1.9485555 0.68884885
-0.28305331 -1.9483724 0.68914527
-0.27569637 -1.9467562 0.68516088
-0.26495004 -1.9446195 0.68572456
-0.255458 -1.941138 0.68687159
-0.33242425 -1.9361687 0.68585151
-0.32585573 -1.9354817 0.68499249
-0.25519428 -1.93853 0.68360394
-0.18179832 -1.8010226 0.68517369
-0.18000001 -1.8012655 0.68148071
-0.20513375 -1.7953662 0.68500018
-0.19536233 -1.7977943 0.68548542
-0.18625501 -1.7976167 0.68525887
-0.178626 -1.795735 0.68659371
-0.21743 -1.7836211 0.68093544
-0.21351001 -1.7726656 0.68183428
-0.211285 -1.7677515 0.68503499
-0.20874834 -1.7621659 0.68389797
-0.38221335 -1.9553189 0.6955964
-0.37678626 -1.9514546 0.69395584
-0.363525 -1.9508048 0.69072533
-0.31423497 -1.9508048 0.69072533
-0.30349466 -1.9524134 0.69565785
-0.29562101 -1.9528481 0.69504941
-0.28623134 -1.9520735 0.6958279
-0.37398204 -1.9480703 0.69556057
-0.36482352 -1.946748 0.69609666
-0.35517138 -1.9444327 0.69447505
-0.34443301 -1.9427183 0.69221199
-0.33790401 -1.9419906 0.6928193
-0.32238445 -1.9416441 0.69448066
-0.31509238 -1.9470046 0.69512224
-0.30731502 -1.948531 0.69536018
-0.28402713 -1.9490134 0.69444287
-0.2750718 -1.9476395 0.69523692
-0.26538351 -1.9440248 0.69452167
-0.25411999 -1.940398 0.69311464
-0.35097 -1.9391586 0.69854879
-0.34459057 -1.9382193 0.69626343
-0.33402136 -1.9355357 0.69541937
-0.32603237 -1.9354854 0.69625717
-0.26065999 -1.9390302 0.69304591
-0.25491571 -1.9384801 0.69518763
-0.20413603 -1.8031018 0.69632375
-0.19464801 -1.8026826 0.69650811
-0.18408929 -1.8017157 0.69524604
-0.20821874 -1.7956165 0.6955803
-0.18614334 -1.7994601 0.69595355
-0.17844333 -1.7976438 0.69559604
-0.21131 -1.7725661 0.69408333
-0.29372001 -1.9601934 0.70940202
-0.28525999 -1.9601934 0.70940202
-0.38237998 -1.953187 0.70523655
-0.31350332 -1.9505296 0.70811319
-0.30407768 -1.9533746 0.70526189
-0.29489249 -1.95543 0.70481592
-0.28497922 -1.9550446 0.7051928
-0.27499771 -1.952847 0.70523798
-0.26925999 -1.9505296 0.70811319
-0.060779002 -1.9539621 0.70826393
-0.38064498 -1.9496446 0.70669132
-0.37467048 -1.9462364 0.70491159
-0.36455518 -1.9429672 0.70517498
-0.35544142 -1.9408567 0.70210779
-0.34310001 -1.9402999 0.7022208
-0.3213571 -1.941929 0.70436817
-0.31524393 -1.947391 0.70441931
-0.30773002 -1.9484074 0.70252764
-0.27631664 -1.9487361 0.70162725
-0.26516056 -1.9457442 0.70552182
-0.25621077 -1.9409049 0.70293969
-0.36640501 -1.9394953 0.70628399
-0.35417998 -1.9378867 0.70570493
-0.34486246 -1.9356881 0.70508975
-0.33549774 -1.9343915 0.70467383
-0.32573885 -1.9356011 0.70547432
-0.25453636 -1.9392682 0.70640111
-0.20490684 -1.8030961 0.70461231
-0.1950337 -1.8021879 0.70447278
-0.18435 -1.8016305 0.70233685
-0.17901 -1.8008088 0.70201778
-0.20575801 -1.7973158 0.7066859
-0.19495833 -1.7989987 0.70824939
-0.18522428 -1.7983235 0.70639718
-0.17900999 -1.7982216 0.70620853
-0.30387715 -1.9639324 0.7174052
-0.29486728 -1.9652324 0.71646917
-0.28659669 -1.9641867 0.71638602
-0.063259996 -1.9632564 0.71605265
-0.38316712 -1.9523755 0.71570158
-0.31382182 -1.9546777 0.71482283
-0.3059127 -1.9572152 0.71273756
-0.29513666 -1.9590797 0.71120596
-0.28372499 -1.9582006 0.71336764
-0.27528411 -1.9560179 0.71425033
-0.26908669 -1.9506708 0.71549863
-0.060779002 -1.9511909 0.71275252
-0.38091999 -1.9483179 0.71169555
-0.37533003 -1.9459763 0.71576059
-0.36471939 -1.9420604 0.71475285
-0.32114667 -1.9410104 0.71414131
-0.31893778 -1.9466684 0.71500194
-0.26360667 -1.9445599 0.7151559
-0.25641501 -1.9414442 0.71576226
-0.24993999 -1.9410269 0.71779478
-0.36694002 -1.9390165 0.71267533
-0.355519 -1.9375707 0.71456617
-0.34523693 -1.9329356 0.71462888
-0.33544803 -1.9330448 0.71507668
-0.32440609 -1.9351131 0.71525425
-0.253241 -1.9389101 0.71395171
-0.24843125 -1.9384699 0.71494091
-0.2106 -1.8113556 0.71977007
-0.21016499 -1.8092349 0.71578121
-0.20501 -1.8039346 0.71515262
-0.19501132 -1.8024858 0.71583754
-0.18582693 -1.8029444 0.71611583
-0.17975 -1.8019614 0.71499872
-0.20294499 -1.7986058 0.71053553
-0.196035 -1.7986058 0.71053553
-0.18517801 -1.7986057 0.71053553
-0.17926 -1.7986058 0.71053553
-0.30061001 -1.9709414 0.72663802
-0.29651716 -1.9710538 0.72477001
-0.28779751 -1.9714783 0.72572088
-0.31370002 -1.9619612 0.7248134
-0.30545998 -1.966206 0.72489029
-0.29444999 -1.9687455 0.72494137
-0.28448713 -1.9646577 0.72479671
-0.27653199 -1.9615567 0.72451669
-0.063259996 -1.9604669 0.72057092
-0.38415247 -1.9538305 0.7247532
-0.37652498 -1.9510632 0.72704637
-0.31803855 -1.9560173 0.72524947
-0.27252665 -1.9572525 0.72381037
-0.26679999 -1.9519285 0.72689569
-0.063166 -1.956395 0.72126544
-0.37599942 -1.9471481 0.72532123
-0.36575812 -1.9452227 0.7248826
-0.35657108 -1.9426215 0.72599894
-0.32102248 -1.9429357 0.72541052
-0.31865001 -1.949071 0.72189718
-0.2634657 -1.9481083 0.72421819
-0.25517157 -1.9438215 0.72558105
-0.35345331 -1.9382 0.72335738
-0.34488264 -1.9367058 0.72485775
-0.33511627 -1.9356782 0.72475731
-0.32587063 -1.9351804 0.72533876
-0.25029999 -1.9394662 0.72603327
-0.059902001 -1.9082558 0.72633237
-0.21174601 -1.8116856 0.72540319
-0.19295 -1.8107586 0.72587693
-0.18232334 -1.8146267 0.72636908
-0.21166499 -1.8088729 0.725124
-0.20472002 -1.8071606 0.72500759
-0.19461751 -1.8073267 0.72534466
-0.18636693 -1.8075389 0.72523504
-0.30241999 -1.9705458 0.73692369
-0.29640874 -1.970854 0.7347033
-0.28822169 -1.9714136 0.73650151
-0.31469196 -1.963843 0.73505419
-0.30592391 -1.9669001 0.73444259
-0.29426464 -1.9683017 0.73548245
-0.28414375 -1.965723 0.73432899
-0.27600947 -1.9636638 0.7353304
-0.38423899 -1.9546839 0.73507792
-0.3755267 -1.9520761 0.73566014
-0.36507848 -1.9527392 0.7361486
-0.35852501 -1.9524214 0.73645824
-0.32041252 -1.9531372 0.7367267
-0.31911001 -1.9562426 0.73306066
-0.26641414 -1.9526609 0.73556608
-0.38157248 -1.9463972 0.73750746
-0.37450162 -1.9484078 0.73233104
-0.36532664 -1.948764 0.73172235
-0.35460895 -1.9469912 0.73484147
-0.344596 -1.9423244 0.73463994
-0.33828831 -1.9411798 0.73369575
-0.321464 -1.9432806 0.73455095
-0.26179168 -1.9490285 0.73516458
-0.25482309 -1.9448203 0.73434693
-0.248575 -1.9429648 0.73454815
-0.34507668 -1.9392118 0.73405963
-0.33337498 -1.9368944 0.73590976
-0.32553303 -1.9348181 0.73505169
-0.24645001 -1.9389982 0.73250186
-0.18301 -1.8235493 0.7358067
-0.21265 -1.8119017 0.73529887
-0.20646112 -1.8113573 0.73673069
-0.1945807 -1.8119509 0.73591071
-0.1872175 -1.8143086 0.73473662
-0.20441636 -1.8085316 0.73365402
-0.197954 -1.8085797 0.73347986
-0.38870999 -1.9603401 0.74952054
-0.3143954 -1.9622236 0.74471247
-0.30557403 -1.9643445 0.7452206
-0.29497239 -1.9659495 0.74491858
-0.28573939 -1.9647398 0.74502331
-0.27685899 -1.9609802 0.74505728
-0.26470333 -1.9603401 0.74952054
-0.38493997 -1.9555711 0.74464697
-0.37499812 -1.954707 0.7452724
-0.36537266 -1.955584 0.74476093
-0.35569933 -1.9526607 0.74539834
-0.32053 -1.9510634 0.74151349
-0.31688005 -1.9566971 0.74499005
-0.28246 -1.9591637 0.74571526
-0.27491456 -1.9588832 0.74509662
-0.26553082 -1.9547766 0.74460417
-0.25495499 -1.954743 0.74498969
-0.24887998 -1.9547352 0.74514747
-0.38216749 -1.9482713 0.74603599
-0.35152999 -1.949365 0.74236089
-0.34437943 -1.9449703 0.74464589
-0.33676332 -1.9435991 0.7446146
-0.32041252 -1.9475582 0.7457633
-0.32473996 -1.9341351 0.74531192
-0.060162999 -1.9088583 0.74191755
-0.18493001 -1.8341886 0.74709558
-0.18722428 -1.8231199 0.74457902
-0.21190819 -1.811879 0.74489784
-0.20441096 -1.8119837 0.74572957
-0.19460477 -1.8145233 0.74461663
-0.18854 -1.8195883 0.74222255
-0.2124175 -1.8093086 0.74602413
-0.20476 -1.8098855 0.74251968
-0.38958001 -1.9619408 0.75577962
-0.30241498 -1.9621902 0.75390047
-0.29532304 -1.9627935 0.75478357
-0.28728002 -1.963612 0.75484294
-0.27506 -1.9616507 0.75582802
-0.26402998 -1.9610342 0.75429744
-0.25271717 -1.9616506 0.75582802
-0.24834 -1.963412 0.75634718
-0.38316312 -1.9560686 0.7557615
-0.37480152 -1.9552578 0.75432622
-0.36483371 -1.9559326 0.75477225
-0.3547937 -1.9526452 0.75533211
-0.34302223 -1.950865 0.75587898
-0.31543544 -1.9556938 0.75469321
-0.30690387 -1.9577628 0.75566238
-0.295075 -1.9599099 0.75611836
-0.28242999 -1.9587451 0.75618941
-0.27482 -1.9582373 0.75490934
-0.26484823 -1.9572638 0.75529015
-0.2552188 -1.9581954 0.7561183
-0.24856 -1.9585544 0.756347
-0.38330001 -1.9489403 0.75637388
-0.34616214 -1.9464194 0.75556219
-0.33706498 -1.9466622 0.75549513
-0.321435 -1.9461957 0.75606036
-0.31720999 -1.9478213 0.75818634
-0.32575059 -1.9348449 0.75551718
-0.061094999 -1.9087515 0.75700217
-0.18296333 -1.8412265 0.75755554
-0.18531999 -1.8343223 0.75471526
-0.19135 -1.8208387 0.75561631
-0.188742 -1.8260206 0.75561756
-0.21064252 -1.8116691 0.75504988
-0.20462525 -1.8119408 0.75488019
-0.19496739 -1.8154846 0.75490338
-0.21276444 -1.8063768 0.75391418
-0.20241332 -1.8091069 0.75577354
-0.39045 -1.9618406 0.76479352
-0.3883 -1.9601477 0.76753557
-0.30195001 -1.9605936 0.76091224
-0.29541251 -1.9608983 0.76386112
-0.28680855 -1.9626369 0.76429242
-0.27558857 -1.960759 0.76485908
-0.38337082 -1.9554468 0.76516312
-0.37522003 -1.9533234 0.76461315
-0.36550128 -1.9532061 0.76441187
-0.35602859 -1.951676 0.76355439
-0.32077 -1.9548459 0.76432103
-0.31330505 -1.9550301 0.76439154
-0.30471352 -1.9568174 0.76529294
-0.295625 -1.9584187 0.76591069
-0.28450596 -1.9578174 0.76540893
-0.27522498 -1.9584783 0.76551878
-0.26487762 -1.9545732 0.76448214
-0.25453216 -1.9548627 0.76506376
-0.24797001 -1.9542849 0.76522982
-0.38415501 -1.9488094 0.76534224
-0.37373999 -1.9491087 0.76771289
-0.36519498 -1.9485466 0.76862341
-0.35519505 -1.9477205 0.76588213
-0.34521386 -1.9456818 0.7649954
-0.33784002 -1.9460968 0.76540536
-0.32277998 -1.9448057 0.76602149
-0.31792 -1.9482486 0.76625061
-0.32640922 -1.934571 0.76424414
-0.062439635 -1.9084438 0.76605535
-0.18127 -1.8425802 0.76246947
-0.18423085 -1.8344569 0.76326972
-0.18661 -1.8245778 0.76527065
-0.21122999 -1.8124857 0.76400673
-0.2056977 -1.8116384 0.7634024
-0.19408002 -1.8134531 0.7639817
-0.18972501 -1.8194003 0.76584595
-0.21235999 -1.8044049 0.76167685
-0.20440643 -1.8074629 0.76590109
-0.19794667 -1.8092173 0.76587409
-0.39103001 -1.9613005 0.77137917
-0.32269001 -1.9602741 0.7789427
-0.29640001 -1.9607358 0.77229393
-0.28675598 -1.9609106 0.77555144
-0.27540222 -1.9611816 0.7755059
-0.39103001 -1.9579122 0.77686751
-0.38440382 -1.9542669 0.77429384
-0.37537 -1.9509112 0.77069438
-0.36573663 -1.9509112 0.77069443
-0.32238501 -1.9566095 0.77464706
-0.31397596 -1.9541724 0.7742641
-0.30456126 -1.9557321 0.77487868
-0.2950339 -1.9573721 0.77552146
-0.2854659 -1.9569924 0.77430356
-0.27500373 -1.9585407 0.77370781
-0.265127 -1.9547393 0.77448738
-0.25500044 -1.9533625 0.7745918
-0.24797 -1.9509112 0.77069438
-0.38408998 -1.9472135 0.77668345
-0.37427855 -1.9481686 0.77598017
-0.3648347 -1.9472768 0.77533913
-0.35536665 -1.9447944 0.77528119
-0.34493351 -1.9434903 0.77484322
-0.33801556 -1.9429755 0.77384013
-0.32521003 -1.9443138 0.77555549
-0.31863001 -1.9480982 0.77525097
-0.25029498 -1.9495589 0.77583545
-0.24772334 -1.9467152 0.77355689
-0.34919 -1.9399836 0.77088177
-0.33277145 -1.9351779 0.77542973
-0.32749555 -1.9352908 0.77404094
-0.064660914 -1.9084462 0.77316386
-0.18522 -1.83109 0.77841592
-0.19057333 -1.823588 0.77559233
-0.18578073 -1.8264059 0.773929
