# .PCD v0.7 - Point Cloud Data file format
VERSION 0.7
FIELDS x y z
SIZE 4 4 4
TYPE F F F
COUNT 1 1 1
WIDTH 1401
HEIGHT 1
VIEWPOINT 0 0 0 0 1 0 0
POINTS 1401
DATA ascii
-0.075531721 0.14316824 0.74535209
-0.064816296 0.14365399 0.74550885
-0.054807637 0.14411141 0.74519736
-0.045363955 0.14473593 0.74531114
-0.034860007 0.14477491 0.74615282
-0.025144517 0.14515749 0.74598074
-0.01499632 0.14514661 0.74497527
-0.0051744753 0.14554667 0.74546951
0.0050328178 0.14540149 0.74535251
0.014765672 0.14580771 0.74594545
0.024863061 0.14615582 0.74555868
0.034793552 0.14592485 0.74531406
0.045093685 0.14634095 0.74539989
0.054958221 0.14683832 0.74559426
0.065139838 0.14695381 0.74632746
0.075012848 0.14674319 0.74593806
0.084898718 0.14709511 0.745983
0.095041044 0.14735773 0.74685121
0.10494696 0.14730294 0.74642771
0.11495482 0.14768915 0.74551392
0.1250128 0.1477973 0.74593341
0.13491136 0.14806329 0.74596143
0.14506 0.14820711 0.74634331
0.15477701 0.14828946 0.74647719
0.16515566 0.1477847 0.7463215
0.17443976 0.14843325 0.74555004
0.18514578 0.14864263 0.74728942
0.19510028 0.14836057 0.74710482
0.20472765 0.14789365 0.7477181
0.21439658 0.14846997 0.74905044
0.22562812 0.14839816 0.74819684
0.23385845 0.14860465 0.74859881
0.24019 0.14926 0.74915498
0.055100143 0.15021142 0.74042708
0.064680547 0.15029846 0.74085927
0.076159999 0.15021142 0.74042708
0.085520245 0.15049 0.74086565
0.094686493 0.15068191 0.74145091
0.10544065 0.15095192 0.74116147
0.11447636 0.15096273 0.74116266
0.12499808 0.15069078 0.74091882
0.13530792 0.15066166 0.74093175
0.14514861 0.15102029 0.74127072
0.15568762 0.15144378 0.74174017
0.16462052 0.1515463 0.74175668
0.17453387 0.15104251 0.74138236
0.18567705 0.15174936 0.74198401
0.19492559 0.15166014 0.74227715
0.20483623 0.15201488 0.74283063
0.21524684 0.15159638 0.74444628
0.22508569 0.15204516 0.74318749
0.23481926 0.15229015 0.74413997
0.038907196 0.12054799 0.75963604
0.04624847 0.12237269 0.7580654
0.055302855 0.1239212 0.75727874
0.063697144 0.12315973 0.75757205
-0.14134848 0.13551271 0.75517154
-0.13528475 0.13586587 0.7545867
-0.12480746 0.13609406 0.75470132
-0.11513882 0.13620931 0.7548908
-0.10498325 0.1363389 0.75513595
-0.094930939 0.13648117 0.75479949
-0.085065104 0.13639987 0.75489527
-0.07499785 0.13669202 0.75490558
-0.065168492 0.13695273 0.75506127
-0.055189598 0.13766982 0.75554705
-0.045066375 0.13716601 0.75604725
-0.035488933 0.13740772 0.75678134
-0.024954237 0.13817164 0.75688833
-0.0147028 0.13780737 0.75652897
-0.0050029801 0.13782679 0.7564615
0.0052027861 0.13762023 0.75662464
0.014575081 0.13769943 0.75655633
0.024724012 0.13858446 0.75703299
0.035362452 0.13870871 0.7577889
0.044891298 0.13844778 0.75729245
0.05559906 0.13846336 0.75776976
0.064258471 0.13879 0.75793034
0.075372607 0.13922 0.75879341
0.085080363 0.13890131 0.75834727
0.094524696 0.1394995 0.75903505
0.1053856 0.13939601 0.7591545
0.11468071 0.1392836 0.75889826
0.1246025 0.13966437 0.75928438
0.13559501 0.13914201 0.75851709
0.1444129 0.13907422 0.7585988
0.15567999 0.13996001 0.75980002
0.161275 0.13996001 0.75980002
0.17666002 0.13952249 0.75904942
0.18309078 0.13959768 0.75916386
0.199095 0.13996001 0.75980002
0.202245 0.13996001 0.75980002
-0.061708998 0.14055 0.75037003
-0.05770978 0.14060111 0.75064003
-0.043811768 0.14088708 0.7515502
-0.035087079 0.14102842 0.75180233
-0.024511 0.14140555 0.75237709
-0.015065253 0.14132541 0.75241679
-0.0053070383 0.14126338 0.75189251
0.0034922576 0.14085545 0.75145417
0.015465975 0.14085576 0.75157505
0.025009265 0.14140718 0.75247258
0.035263684 0.14141506 0.75279647
0.044920657 0.14166047 0.75225919
0.054855015 0.1419635 0.75307482
0.065092422 0.14187492 0.75326931
0.075042486 0.14160255 0.75363183
0.085116975 0.14198124 0.75374979
0.095097691 0.14223304 0.75418645
0.10515805 0.14220428 0.75410289
0.11511644 0.14278707 0.75439328
0.12490318 0.14280467 0.75436002
0.13502374 0.14303106 0.75397539
0.14495561 0.14322789 0.75424069
0.15513448 0.14344032 0.75499773
0.16484982 0.14302272 0.75534648
0.17528903 0.14369279 0.75514799
0.18482655 0.14391625 0.75475061
0.1949641 0.14371429 0.7552411
0.20487972 0.14331472 0.75521487
0.21530807 0.14421393 0.75487095
0.22468808 0.14425677 0.75490409
0.235496 0.14439572 0.75487608
0.24133071 0.14369696 0.75569785
0.018298583 0.11143833 0.76916164
0.025146756 0.11479655 0.7661196
0.032468945 0.11790791 0.76162267
0.076088153 0.1162025 0.7626797
0.083806992 0.11411876 0.7679857
-0.14250126 0.1279825 0.76726228
-0.13496409 0.12813397 0.76741076
-0.12498571 0.12813519 0.76720387
-0.11481664 0.12835066 0.76753455
-0.1049799 0.1280065 0.7677294
-0.095627107 0.12846719 0.76795447
-0.08486069 0.12893622 0.76825511
-0.075348377 0.12883139 0.76832402
-0.065366 0.12907399 0.76867032
-0.054382522 0.128198 0.76877326
-0.045221005 0.12878177 0.76871681
-0.034470949 0.12867665 0.7677232
-0.02565347 0.12876956 0.76817757
-0.014856853 0.12930778 0.7693696
-0.0053478526 0.12911826 0.76936346
0.017935216 0.1290243 0.7694506
0.025896765 0.12545046 0.76810181
0.034816533 0.1252162 0.7633608
0.044256017 0.12665947 0.76165652
0.054480482 0.12898389 0.76072663
0.066673592 0.12694439 0.76215374
0.075161092 0.12501986 0.76521397
0.081554063 0.12506406 0.76936096
-0.14195439 0.13157441 0.76218897
-0.13480729 0.13194872 0.76231706
-0.12515803 0.13167103 0.76231223
-0.11487949 0.1316902 0.76220673
-0.10501878 0.13176805 0.76258248
-0.09468919 0.13162106 0.76294756
-0.084852256 0.13174491 0.76330638
-0.074939452 0.13197918 0.76336598
-0.064704403 0.13185169 0.76361448
-0.054887526 0.13250796 0.76340425
-0.045119449 0.13203909 0.76339328
-0.03473004 0.13255276 0.76276374
-0.02499803 0.1331864 0.76312852
-0.01494877 0.13292335 0.76451159
-0.0049594739 0.13304724 0.76500082
0.0042742174 0.13326305 0.76495707
0.015556727 0.13319202 0.76454669
0.025054064 0.1335938 0.76481467
0.034796044 0.13394293 0.7628898
0.045188978 0.13336709 0.76175213
0.05474218 0.13363117 0.76105493
0.065207183 0.13391757 0.7622152
0.07516443 0.13452272 0.76443803
0.084990375 0.13426395 0.76530135
0.094740815 0.13478948 0.76495385
0.10493148 0.13508239 0.76518279
0.1150164 0.13509186 0.76524454
0.12507336 0.13545731 0.76483756
0.13467716 0.13545758 0.76482451
0.1451028 0.13564685 0.76481801
0.15501375 0.13588199 0.76509541
0.16489072 0.13640656 0.76538235
0.17478873 0.13639928 0.76477993
0.18522587 0.13637349 0.76481634
0.19491713 0.13667561 0.76560241
0.20520131 0.13665763 0.76554954
0.21490933 0.13659327 0.76625299
0.22486567 0.13715704 0.76577383
0.23505756 0.13708705 0.76572877
0.24291995 0.13676131 0.76608706
0.15454856 0.14003001 0.76021999
0.16562182 0.14008819 0.76051825
0.17121667 0.14003 0.76021999
0.18855999 0.14003 0.76021999
0.19402499 0.14015584 0.76052833
0.20616385 0.14026693 0.76050621
0.21502152 0.14063266 0.76116413
0.22470926 0.14069 0.76092786
0.23449314 0.1408447 0.76114291
0.24194668 0.14013501 0.76077175
0.097352698 0.10257228 0.77794886
0.10401787 0.10220788 0.77950853
0.11571466 0.10272846 0.77840537
-0.14174001 0.11979 0.77896667
0.0074277502 0.11969 0.779185
0.016815757 0.11611635 0.77461761
0.0206475 0.11747125 0.77124059
0.085848838 0.11874667 0.77172661
-0.14327246 0.12293084 0.77484751
-0.13505 0.12310927 0.77501106
-0.12493194 0.1233648 0.7748149
-0.11517508 0.12353153 0.77492619
-0.10502821 0.12356515 0.77500498
-0.094691239 0.12398479 0.77497852
-0.085095063 0.12443639 0.77503473
-0.074892372 0.12448894 0.77467442
-0.066330917 0.12478916 0.77399594
-0.053653613 0.12434072 0.7735002
-0.045081444 0.12474729 0.77503538
-0.035060279 0.1254524 0.77506363
-0.024661615 0.12475899 0.77478325
-0.015185212 0.12526886 0.77498776
-0.0049199853 0.12562989 0.77502632
0.0049969465 0.1252182 0.77578592
0.014872615 0.12497486 0.77461523
0.021798356 0.12383913 0.77119708
0.086157277 0.12557733 0.77329904
0.094622523 0.12760262 0.77559412
0.10504308 0.12762336 0.77585465
0.11512142 0.12738556 0.77621323
0.12486387 0.12800895 0.77667862
0.13495292 0.12804466 0.77693355
0.14488989 0.1282478 0.77696842
0.15504934 0.12808202 0.77699339
0.16478716 0.12808751 0.77677304
0.17531699 0.12863378 0.77727044
0.18486542 0.12854069 0.77772415
0.19566509 0.12866403 0.77752692
0.20458107 0.12839046 0.77726972
0.21387729 0.12911001 0.77865243
0.22578777 0.12956111 0.7794311
0.23538208 0.12927344 0.77943671
0.24481106 0.12890893 0.77887595
0.0064773634 0.13103893 0.77242744
0.012153 0.130501 0.77144396
0.087272003 0.13038501 0.77076
0.097176373 0.13030376 0.77086753
0.10498834 0.13052793 0.77100992
0.11524633 0.13077067 0.77130252
0.12492089 0.13078147 0.7714265
0.13560857 0.13125308 0.77195311
0.1449798 0.13162906 0.7723304
0.15466653 0.13118672 0.77214456
0.16528167 0.13163944 0.77204484
0.17525877 0.13189046 0.77298909
0.18490218 0.13187568 0.77316123
0.19503908 0.13182077 0.77273285
0.20475356 0.13200176 0.77272779
0.21533018 0.13157237 0.77374136
0.22506219 0.13232066 0.77471399
0.23493984 0.13231882 0.77477914
0.2443866 0.13194042 0.77437454
0.10600644 0.1042261 0.78092426
0.11184888 0.10411334 0.78052449
-0.14431715 0.11617085 0.78548425
-0.13501 0.11667027 0.78525203
-0.12506573 0.11671895 0.78546822
-0.11501744 0.11679319 0.78507429
-0.10505371 0.11697271 0.78553164
-0.095016323 0.1169658 0.78519356
-0.08513052 0.11725397 0.78581804
-0.07521522 0.11740194 0.78597385
-0.065401055 0.11765624 0.78675222
-0.054924108 0.11805011 0.78756738
-0.044983521 0.11795191 0.78607911
-0.035430148 0.1176937 0.78707075
-0.024595339 0.11822322 0.78686452
-0.014905812 0.11839259 0.78608817
-0.0049692718 0.11775987 0.7843706
0.0040862956 0.11808758 0.78325838
0.012695896 0.11779033 0.7846334
0.089208998 0.119115 0.78072
0.094679542 0.11881667 0.78754961
0.10459819 0.11953592 0.78881669
0.11558687 0.11973313 0.78911173
0.12502885 0.11938731 0.78845221
0.13455638 0.1194832 0.78856832
0.14490668 0.11950917 0.78863794
0.15195 0.11999 0.78913999
0.16259 0.11999 0.78913999
0.17732 0.11999 0.78913999
0.18574688 0.1197294 0.78908372
0.19328572 0.11957643 0.78869277
0.21046001 0.11999 0.78913999
-0.146695 0.12026 0.78027999
-0.13097 0.12030667 0.78057337
-0.12559181 0.12037182 0.78052002
-0.11287124 0.12032124 0.78066492
-0.10476609 0.1207504 0.78093034
-0.095521875 0.12052812 0.78069246
-0.084363952 0.12057057 0.78081775
-0.07549227 0.12074227 0.7809999
-0.067809999 0.12026 0.78027999
-0.054793768 0.12069234 0.78271645
-0.044184934 0.12110195 0.78114587
-0.03494877 0.12179968 0.78236014
-0.026011091 0.12111001 0.78243101
-0.014401366 0.12107735 0.78136539
-0.0052501345 0.1216187 0.78118861
0.0017750775 0.12052375 0.78066504
0.0119893 0.120715 0.78164399
0.089158997 0.120665 0.78027999
0.095491976 0.12268238 0.78311878
0.10486591 0.12276801 0.78372842
0.11505783 0.12269091 0.78442925
0.12514648 0.12305215 0.78355777
0.13506895 0.12309614 0.78366852
0.14506058 0.12328607 0.78367174
0.15488236 0.12315616 0.78454506
0.16503385 0.12316987 0.78489202
0.17524756 0.12340233 0.78511822
0.18502255 0.12375448 0.78448778
0.19494127 0.12372547 0.78422058
0.20500365 0.1233457 0.78415644
0.21531758 0.12460504 0.78400671
0.22489946 0.12511559 0.78429222
0.23483972 0.12524091 0.78443676
0.24490397 0.12510116 0.78456676
0.25122908 0.12478773 0.78588581
0.012134445 0.097801544 0.79350549
-0.15043999 0.1076825 0.79798251
-0.14494205 0.10796955 0.7970615
-0.13535364 0.10787009 0.797517
-0.12526649 0.10828535 0.79790473
-0.11532282 0.10883616 0.79810441
-0.10477395 0.10865419 0.79797614
-0.095136218 0.10882512 0.79788095
-0.084887147 0.109006 0.79805309
-0.074578248 0.10884576 0.79861248
-0.065156206 0.10886232 0.79861104
-0.054413892 0.10915794 0.79822588
-0.045061897 0.10886244 0.79801124
-0.035771441 0.1096675 0.79887128
-0.025947126 0.109925 0.799245
0.0084483232 0.10859539 0.79930693
0.011487149 0.10563828 0.79707325
0.12827601 0.109604 0.79811996
0.13051002 0.10961 0.79897672
-0.1445438 0.11130903 0.79187858
-0.1349057 0.11155709 0.79228175
-0.12498441 0.11167476 0.79278207
-0.11500528 0.11180133 0.79311454
-0.10498986 0.11199365 0.79321307
-0.094913073 0.11199599 0.79318213
-0.084815897 0.11216426 0.79276586
-0.074787162 0.11241905 0.79353946
-0.065026276 0.11283201 0.79370326
-0.05501442 0.11294144 0.79310942
-0.045027539 0.11291558 0.79330021
-0.034650013 0.11284319 0.79366553
-0.024953911 0.11332146 0.79404503
-0.015239113 0.11378168 0.79488152
-0.0056273704 0.11421918 0.79543877
0.0087006753 0.11401268 0.7962296
0.011379278 0.11403324 0.79540199
0.097282603 0.11470274 0.79271269
0.10514738 0.11470737 0.79389757
0.11469641 0.11657588 0.79300326
0.12525289 0.11490581 0.79405516
0.13473549 0.11540379 0.79473484
0.14510845 0.11632124 0.79470205
0.15461174 0.11635791 0.79568094
0.1661077 0.11705751 0.79494298
0.17508487 0.11687695 0.79511005
0.18483624 0.11676641 0.79436892
0.19506298 0.11702819 0.794617
0.20477515 0.11753326 0.79592061
0.21514927 0.11764555 0.79575461
0.22483923 0.11752028 0.79533207
0.23508681 0.11704943 0.79570693
0.24499129 0.11724635 0.79652947
0.25277966 0.1174794 0.7962451
0.15544501 0.12016501 0.79026496
0.16569856 0.12017 0.79029709
0.173406 0.120172 0.79030997
0.20669554 0.12018445 0.79039001
0.21600921 0.12029923 0.790317
0.22570717 0.12055763 0.79053277
0.23550875 0.12111819 0.79114431
0.24505496 0.12135854 0.79164934
0.25187579 0.12135053 0.7912479
0.0107875 0.098892994 0.80387253
-0.15106177 0.10369647 0.80466223
-0.14496861 0.10328201 0.8048951
-0.1350479 0.1032425 0.80508071
-0.12496434 0.10395785 0.80492806
-0.1150398 0.10448706 0.80504316
-0.10498559 0.10410997 0.80509746
-0.094925694 0.10392991 0.80442047
-0.085081466 0.10423786 0.80427837
-0.075071216 0.1046624 0.80504674
-0.064901389 0.10447431 0.8048777
-0.055313464 0.10549506 0.80551916
-0.044776313 0.10500403 0.80529988
-0.035073157 0.10602835 0.8049832
-0.025124507 0.10630525 0.80443537
-0.015254362 0.10618846 0.80528033
-0.0055238372 0.10694859 0.80626076
0.0050609536 0.10619891 0.80568117
0.010431112 0.10185334 0.80314445
0.12980001 0.10856 0.80142999
0.13599329 0.10790312 0.8045122
0.14478526 0.10763836 0.80664766
0.15519512 0.10865913 0.80675799
0.16501184 0.10830276 0.80741948
0.17499316 0.10819115 0.80753177
0.18481775 0.10826383 0.8078478
0.19475651 0.10856494 0.80741131
0.20525694 0.10888545 0.80743277
0.21505174 0.10893135 0.80709684
0.22457768 0.10858671 0.80777782
0.23442957 0.109022 0.80926913
0.24503143 0.10953714 0.80949867
0.25530666 0.10968001 0.8096801
-0.023483999 0.11004 0.80005002
-0.01443658 0.11045315 0.80084902
-0.0050412449 0.11127357 0.80191821
0.001827308 0.110496 0.80337602
0.13674597 0.11132467 0.80135572
0.14504465 0.11204734 0.80207264
0.15485096 0.11180888 0.80218703
0.16517562 0.11185301 0.80273736
0.17489587 0.11213541 0.80235869
0.18519279 0.11222683 0.80311853
0.19506299 0.11259921 0.80274391
0.20507844 0.11257671 0.80255342
0.21471059 0.11293717 0.80257624
0.2253461 0.11262809 0.80303621
0.23490807 0.11224884 0.80434597
0.24500559 0.11207207 0.80413926
0.25433302 0.1124512 0.80446333
-0.15210471 0.096224234 0.81578213
-0.14514503 0.096762151 0.8151052
-0.13500807 0.096872114 0.81504726
-0.12497813 0.09681464 0.81541604
-0.11503012 0.096998207 0.81530404
-0.1049687 0.097260647 0.81572437
-0.094874755 0.097519442 0.81650829
-0.08516591 0.097629853 0.81656557
-0.075136319 0.09785144 0.81546986
-0.06493558 0.098042905 0.81617284
-0.055196308 0.097623721 0.81588697
-0.045097388 0.097377807 0.81631911
-0.03508392 0.097114533 0.81699389
-0.024881635 0.097286612 0.81736594
-0.015085667 0.09767931 0.81762981
-0.0050995895 0.098070115 0.81751239
0.0036441805 0.098234057 0.81696343
0.010253999 0.098509997 0.81102002
0.14663666 0.099635892 0.81911778
0.154292 0.099951997 0.81939
0.16698332 0.099952005 0.81939
0.17523445 0.099609651 0.81890446
0.18232833 0.099902831 0.81898493
-0.15158999 0.10100374 0.81077999
-0.14690998 0.10054 0.81046659
-0.13223167 0.10056 0.81062335
-0.12541693 0.10069691 0.81067145
-0.11488 0.10072599 0.81059182
-0.10640445 0.10056 0.81062329
-0.098987997 0.10052 0.81031001
-0.083820499 0.10048874 0.81089997
-0.075304143 0.10095181 0.810673
-0.064491354 0.10075413 0.81097531
-0.054522637 0.10127999 0.81132019
-0.04545949 0.10123786 0.81098402
-0.034510814 0.10122249 0.81184667
-0.024935352 0.10142523 0.81230038
-0.015091668 0.10122511 0.81219327
-0.0049394267 0.10194574 0.81228822
0.0032561617 0.10232275 0.81275445
0.14656164 0.10290968 0.81406587
0.15514053 0.10318401 0.81487387
0.16487753 0.10309107 0.81410617
0.17499328 0.10307611 0.81352645
0.18499812 0.10333597 0.81377023
0.19506653 0.10381648 0.81512719
0.20497921 0.1041225 0.8153134
0.21501306 0.10421722 0.81581074
0.22484423 0.10415367 0.81514329
0.23508915 0.10505365 0.81386304
0.24496977 0.10556621 0.81427872
0.25489461 0.10591522 0.8148818
0.2611033 0.10488945 0.81671888
-0.15338556 0.088624634 0.82794052
-0.14542238 0.088832721 0.82767183
-0.13501583 0.088746674 0.8277691
-0.12492485 0.088858351 0.82793832
-0.11486465 0.088707045 0.82798487
-0.1049628 0.088607557 0.82768542
-0.094765879 0.088458598 0.82783926
-0.085060067 0.088767208 0.82846713
-0.075303942 0.088842593 0.82865822
-0.065298453 0.08912459 0.82855815
-0.055041343 0.089483269 0.82849693
-0.044940889 0.089519717 0.82768607
-0.0345704 0.089966998 0.82915992
-0.025321035 0.089144081 0.82876301
-0.015054353 0.089694887 0.82898951
-0.0067982995 0.089789405 0.82911289
-0.15286884 0.091408998 0.82340646
-0.14480387 0.091780484 0.82312906
-0.13500465 0.091826484 0.82287389
-0.12513858 0.091740899 0.82292634
-0.11490499 0.091999508 0.82318074
-0.10513308 0.092204347 0.82241362
-0.094765306 0.09235815 0.8227545
-0.084903188 0.092610694 0.82411426
-0.074863069 0.092974424 0.82430553
-0.06515304 0.093052655 0.82345599
-0.054915681 0.092595942 0.82344991
-0.04492024 0.092131317 0.8226909
-0.035148535 0.092223711 0.82448614
-0.025001533 0.092566945 0.82415181
-0.014590964 0.093028881 0.82439977
-0.004948277 0.093297765 0.82493198
0.0025341939 0.093472116 0.82560062
0.10860956 0.093916439 0.82742965
0.1149103 0.095545776 0.8249644
0.12407318 0.095863365 0.82548857
0.14878368 0.097056843 0.82294196
0.15482509 0.095752791 0.82517761
0.16505051 0.096752129 0.82600325
0.17479081 0.096753478 0.82584101
0.18509555 0.097213887 0.8257435
0.19497973 0.097367756 0.82579285
0.20518209 0.096989788 0.82561642
0.21494663 0.096895091 0.82521218
0.22500569 0.097506881 0.82570314
0.23485447 0.097320653 0.82707781
0.24497266 0.097094446 0.82743698
0.25478527 0.097792856 0.82731253
0.26285976 0.097761132 0.82747698
0.11673532 0.10063866 0.82174397
0.12309599 0.10203572 0.82327235
0.16477001 0.10007 0.82034999
0.18818399 0.100082 0.82044804
0.19558667 0.10035266 0.82080388
0.20482166 0.10010501 0.82063574
0.2149846 0.10016307 0.82057607
0.22564942 0.1004406 0.82092285
0.23442928 0.10113642 0.82161891
0.24571639 0.10116799 0.8221032
0.25500542 0.10116256 0.82193571
0.26253098 0.10169699 0.82254201
-0.14259401 0.079769805 0.839486
-0.15397836 0.084691875 0.83421153
-0.14483806 0.084094867 0.83492225
-0.13633938 0.083257817 0.83597958
-0.12480607 0.084700406 0.83492672
-0.11514205 0.084276393 0.83500552
-0.10520427 0.084760331 0.83526397
-0.094866864 0.084549733 0.83482873
-0.084916547 0.084721722 0.83422482
-0.074907243 0.084615529 0.8346042
-0.065080605 0.085460424 0.83484417
-0.055252526 0.086374842 0.83508831
-0.044451099 0.087024473 0.83575547
-0.034821209 0.0855975 0.83494169
-0.025017954 0.085214242 0.83426052
-0.014952768 0.086078271 0.83483213
-0.0050079972 0.08644709 0.83490777
0.0022260218 0.085716546 0.83547938
0.10902857 0.088378713 0.8350786
0.11503112 0.088061139 0.83651018
0.12332509 0.087621331 0.83653402
0.15595399 0.087528862 0.83663917
0.16482404 0.088016838 0.83715206
0.17476018 0.088264734 0.83720481
0.18498665 0.089038998 0.83797151
0.1951375 0.088825934 0.83776802
0.20434028 0.089029245 0.83796024
0.21562003 0.089430839 0.8389284
0.22535826 0.089145668 0.83809441
0.23352562 0.089398384 0.83794808
0.24435064 0.089367412 0.83860803
0.25577235 0.089319482 0.83876407
0.26333582 0.089072682 0.83897001
-0.000695405 0.0905855 0.83090502
0.002233352 0.0904724 0.83065397
0.10873 0.090585671 0.83090162
0.11532679 0.090832949 0.83174634
0.12280901 0.091095641 0.83202046
0.15646601 0.090981781 0.8313759
0.16515566 0.091865838 0.83212698
0.17512539 0.092201166 0.83262831
0.18505439 0.092476122 0.83334374
0.19516945 0.092638612 0.83281189
0.20488174 0.092343688 0.83327258
0.21487013 0.091911927 0.83400249
0.22504249 0.092768699 0.83333004
0.23493756 0.092419595 0.83359724
0.24526937 0.09217266 0.83359444
0.25511232 0.092536308 0.83359921
0.26400036 0.092803895 0.83388889
-0.16023999 0.073714003 0.84996003
-0.15512113 0.076692775 0.84510159
-0.14507993 0.076934375 0.84450662
-0.1349725 0.076572865 0.84511238
-0.12523916 0.076599695 0.84598505
-0.1151277 0.077261128 0.84575808
-0.10523431 0.077261738 0.84697211
-0.094579116 0.077949926 0.84697664
-0.084884934 0.077124894 0.8472783
-0.074915074 0.077006921 0.84627604
-0.065145865 0.077192642 0.84595585
-0.054799344 0.077550597 0.84742832
-0.045003258 0.077913813 0.8474043
-0.035556227 0.07822068 0.84737074
-0.024701811 0.078498974 0.84793556
-0.015193704 0.078640342 0.84735447
-0.0043705627 0.077971898 0.84696126
0.0015730355 0.077359155 0.84373784
0.11487692 0.079559855 0.84939998
0.12237429 0.079596996 0.84958851
-0.157965 0.080709003 0.84018999
-0.13234124 0.080757253 0.84069997
-0.12549753 0.080800474 0.84115523
-0.11366857 0.080764152 0.84077293
-0.10460623 0.081023715 0.84200954
-0.095277183 0.081024133 0.84244961
-0.084897064 0.080946714 0.84218854
-0.074826859 0.080755837 0.84160119
-0.064593501 0.081184909 0.84165055
-0.05458048 0.082065307 0.84216493
-0.045659114 0.08246161 0.84258401
-0.035514634 0.080857821 0.8420608
-0.024858836 0.08111047 0.84242487
-0.015117916 0.081362173 0.8424654
-0.0049565351 0.081685752 0.84271258
0.0016207383 0.080894329 0.84061497
0.11528699 0.083308384 0.84372014
0.12284846 0.082871392 0.84374774
0.15748306 0.08335115 0.84481716
0.16522069 0.083540156 0.84539706
0.17512864 0.083840728 0.84451163
0.1852904 0.084018208 0.84472758
0.19489715 0.084318288 0.84538662
0.2051684 0.084368333 0.8451308
0.21498913 0.085143223 0.84515846
0.22489348 0.084682323 0.8450681
0.23485793 0.084748894 0.84505057
0.24519572 0.085365012 0.84517723
0.25472441 0.085479692 0.84556234
0.26509783 0.085682303 0.84459686
0.27086556 0.084316105 0.84634233
-0.16109666 0.068833224 0.85871327
-0.15443817 0.068394244 0.85860884
-0.14548145 0.068403803 0.85799593
-0.13529564 0.069075197 0.85700524
-0.12481713 0.069026597 0.85869318
-0.11529884 0.069056422 0.8581267
-0.10496498 0.069391698 0.85813606
-0.095042005 0.069066867 0.85868895
-0.085455753 0.069194809 0.85844547
-0.078745998 0.069231004 0.85995001
-0.063569732 0.069085054 0.85915494
-0.056157947 0.069409713 0.85886335
-0.030593 0.069231004 0.85995001
-0.026161624 0.069436446 0.85905558
0.0013596866 0.069031999 0.85933161
-0.16070001 0.071551003 0.85396498
-0.15465814 0.072106086 0.85330462
-0.1452051 0.07214614 0.8530699
-0.13499774 0.071491823 0.85210836
-0.12451756 0.071971782 0.8534236
-0.11493463 0.072251491 0.85315627
-0.10471137 0.072541542 0.85300344
-0.094941154 0.073190399 0.8532182
-0.085123308 0.072497509 0.85324442
-0.075141251 0.0722242 0.8559047
-0.064949714 0.072452515 0.85532552
-0.054956626 0.072828829 0.8535018
-0.045034692 0.072798766 0.85481703
-0.034896716 0.073247544 0.85529572
-0.024957271 0.073700584 0.85439718
-0.015031816 0.074236177 0.85584003
-0.0053654951 0.074012347 0.85592985
0.0010064705 0.072171882 0.85631233
0.11659866 0.075883649 0.85338789
0.12279327 0.076540053 0.85221297
0.15858001 0.07695213 0.85662204
0.16498175 0.076809965 0.85616052
0.17505151 0.077192709 0.85722291
0.18539129 0.076867349 0.85633069
0.19471796 0.076920092 0.85534078
0.20524877 0.077450149 0.85558343
0.21492802 0.076996788 0.85579914
0.22482853 0.077236675 0.85658163
0.23490195 0.077526942 0.85666645
0.2450866 0.077191822 0.85696757
0.25500506 0.076905966 0.85598129
0.26479727 0.07694748 0.85682505
0.27273729 0.077360459 0.85793149
0.15820599 0.080462292 0.85141599
0.16523352 0.08044605 0.85096937
0.17514609 0.080559529 0.85183913
0.1826091 0.080342822 0.85142541
0.19577202 0.080449127 0.85096526
0.20410503 0.080433495 0.85111141
0.21619278 0.080545567 0.85125995
0.22490545 0.08042299 0.85142535
0.23626408 0.080717221 0.85156846
0.24483515 0.080902994 0.85169464
0.25538227 0.080886215 0.85123473
0.26466542 0.081236079 0.85175008
0.27173167 0.080925591 0.85165256
-0.16173972 0.063616507 0.86512989
-0.15542214 0.063885204 0.86417228
-0.14473373 0.064155005 0.86481065
-0.13497764 0.064748153 0.86586809
-0.12506367 0.064574674 0.8649413
-0.11501878 0.06480784 0.86587524
-0.10510954 0.065576322 0.86575037
-0.094891645 0.064848796 0.86517292
-0.084911831 0.065034896 0.86605132
-0.075057603 0.066079773 0.86487347
-0.065295942 0.065757342 0.86388922
-0.054721244 0.066545688 0.86550975
-0.044870116 0.066401631 0.86512482
-0.035023507 0.066673093 0.8653205
-0.02494509 0.065734342 0.86543345
-0.015274661 0.066634208 0.86554652
-0.0054129283 0.066554733 0.86470252
0.00035070599 0.067181394 0.86112201
0.15834901 0.068862393 0.86768401
0.16501477 0.068579711 0.86731195
0.17506784 0.068583943 0.8673631
0.1849528 0.068462186 0.86678934
0.19450162 0.068676591 0.86727804
0.20472302 0.069116026 0.86860663
0.21491441 0.069001205 0.86829633
0.22418946 0.069460057 0.86869371
0.23586249 0.069657758 0.86875433
0.24490389 0.069448836 0.86850435
0.25518954 0.069508016 0.86899531
0.26368335 0.069680996 0.86927336
0.27489999 0.069660462 0.86902136
-0.075672001 0.070165999 0.86048001
-0.013575933 0.070560463 0.86094475
-0.0061678952 0.070842706 0.86112297
0.15854469 0.072095186 0.86287481
0.16506185 0.07188829 0.86238128
0.175221 0.07232476 0.86235869
0.18467471 0.071883194 0.86200184
0.19522531 0.072034292 0.86259973
0.20492315 0.072699375 0.8641271
0.21467257 0.072227031 0.8634547
0.22526145 0.072589688 0.86396068
0.23495537 0.072779015 0.86395395
0.24482682 0.072347671 0.86348927
0.25495124 0.072456829 0.86463565
0.26514193 0.072195947 0.86521125
0.27392715 0.072545208 0.86458629
-0.16270293 0.056619409 0.87562031
-0.15512362 0.057341807 0.87641227
-0.14501789 0.057460252 0.87601203
-0.1348893 0.057772998 0.87532312
-0.12508979 0.058321513 0.87696052
-0.11490797 0.057813328 0.87591469
-0.1050849 0.057842821 0.87660122
-0.095082812 0.057838995 0.87655187
-0.085156932 0.057893701 0.87579596
-0.075290352 0.058180746 0.8774938
-0.064863712 0.058329545 0.87862092
-0.055420689 0.058227092 0.87800801
-0.045400586 0.058899797 0.87791419
-0.035051268 0.058466002 0.87762237
-0.025051842 0.057968177 0.87575758
-0.015366603 0.058355652 0.87698996
-0.0069167204 0.058560669 0.87769336
0.16435 0.059863001 0.87954003
0.20858 0.059863001 0.87954003
-0.16207249 0.060147002 0.87045497
-0.154479 0.06057445 0.87141001
-0.14510095 0.060689382 0.87145579
-0.13513778 0.060506601 0.87057614
-0.1250432 0.060636457 0.87159711
-0.11448653 0.060692836 0.87096441
-0.104836 0.061229888 0.87192959
-0.094895944 0.06079774 0.87134528
-0.084537722 0.060793605 0.8709237
-0.074644677 0.061384596 0.87245673
-0.064991005 0.061812136 0.87417519
-0.055294137 0.062270541 0.87339824
-0.045050703 0.061555017 0.87316287
-0.034966301 0.061945219 0.87292701
-0.024888085 0.061254952 0.87117976
-0.01485815 0.061810672 0.87254333
-0.0072790915 0.061692841 0.87319112
0.15828189 0.064392917 0.87534559
0.1649231 0.063814215 0.87544364
0.17531943 0.063229099 0.87606508
0.18487643 0.064237803 0.87576902
0.19574732 0.06482581 0.87533951
0.20520507 0.064310938 0.87473196
0.21493973 0.06412565 0.87507087
0.22523931 0.064771429 0.87531424
0.23465389 0.065713614 0.87534195
0.24506678 0.065510027 0.87476462
0.25493106 0.065479934 0.8744818
0.26503587 0.065578662 0.87507093
0.27467149 0.066169262 0.87561101
0.28070337 0.065554336 0.87708217
0.26696336 0.070054002 0.87017995
-0.16395777 0.049457889 0.88923669
-0.15468818 0.049442086 0.88895458
-0.14399788 0.049171422 0.88882506
-0.13477956 0.048870396 0.88876301
-0.12512229 0.048955549 0.88848966
-0.11565999 0.049144931 0.88878936
-0.1048775 0.049387082 0.88934749
-0.094896361 0.049381271 0.88936907
-0.084607087 0.048824906 0.88916188
-0.075914599 0.048746638 0.88838309
-0.066985667 0.049461167 0.88929993
-0.05452916 0.049299661 0.88915747
-0.044803713 0.049255352 0.88915068
-0.038561333 0.049471665 0.88948995
-0.16356446 0.051830452 0.88423508
-0.15502249 0.052350033 0.88424432
-0.14488588 0.052586898 0.88401061
-0.13509433 0.052853372 0.88441133
-0.12505203 0.053282414 0.88393056
-0.11511782 0.052741859 0.88465184
-0.105 0.052882928 0.88472617
-0.09495841 0.052889939 0.88523424
-0.084932439 0.053109929 0.88512439
-0.074795976 0.053126678 0.88322008
-0.065043792 0.053215161 0.88371462
-0.054725636 0.053251781 0.88431555
-0.044792436 0.053897403 0.88503009
-0.035334263 0.05368178 0.88527745
-0.025162827 0.054588005 0.88476878
-0.015227944 0.054777887 0.88450021
-0.0076032639 0.055076253 0.88448381
0.1565129 0.057188783 0.88652015
0.16499779 0.056950513 0.8846454
0.17476107 0.057262685 0.88488978
0.18497974 0.05740802 0.88467699
0.1950421 0.057167221 0.88614255
0.20495175 0.057475258 0.88539219
0.21509747 0.058020651 0.88466907
0.22520638 0.057893004 0.88512957
0.23476782 0.057683647 0.88585055
0.24450728 0.058089059 0.8872965
0.25529143 0.0584048 0.88789594
0.26484531 0.058085646 0.88739675
0.2751998 0.057994664 0.88690394
0.28254655 0.057196654 0.88748765
0.15797001 0.060523871 0.88087004
0.16150665 0.060547668 0.88066006
0.17876501 0.060414501 0.88094008
0.18585101 0.060920395 0.88032407
0.19425054 0.061211631 0.88158315
0.20160249 0.060414497 0.88094008
0.22162832 0.060547665 0.88066006
0.23613778 0.061059561 0.8812201
0.24464141 0.0611085 0.88211584
0.255045 0.061047167 0.88271964
0.26475793 0.060796417 0.88214684
0.27531731 0.061390657 0.88201207
0.28175503 0.06174634 0.88258892
-0.168175 0.039767001 0.89946997
-0.16469473 0.044651505 0.89516944
-0.15507093 0.045179643 0.89498872
-0.14534014 0.045206197 0.89481163
-0.13507742 0.045018092 0.89475125
-0.12504309 0.045236021 0.89506334
-0.11498968 0.045698859 0.89510882
-0.10491603 0.046072587 0.89474297
-0.095005743 0.046077747 0.89436215
-0.08536841 0.045375038 0.89422441
-0.074712165 0.04612634 0.89510894
-0.064751573 0.046267066 0.89575446
-0.055044532 0.046067715 0.89462185
-0.045280255 0.046182733 0.89440632
-0.034907341 0.046526849 0.89504772
-0.024911607 0.046586253 0.89615768
-0.014727022 0.046612915 0.89594674
-0.0064066048 0.046420846 0.89593107
0.13828667 0.049372669 0.89889002
0.14721923 0.049294926 0.89790833
0.15542926 0.048495777 0.89768767
0.16445781 0.048966803 0.89821929
0.17532031 0.049145494 0.89806992
0.18257166 0.049354076 0.8985517
0.19793555 0.049565665 0.89863217
0.20528001 0.048909448 0.8976106
0.21350999 0.049085557 0.89854717
0.22788998 0.049628623 0.89859998
0.23492683 0.049497508 0.89833623
0.2449819 0.049525801 0.89844793
0.25240999 0.0498082 0.8988899
0.26650876 0.049874127 0.89881754
0.27188998 0.049995001 0.89889002
-0.031353224 0.051224113 0.89145672
-0.024907358 0.051632743 0.89231426
-0.014678407 0.051460661 0.89200032
-0.0074518397 0.051687896 0.89193547
0.13541999 0.050027002 0.89946997
0.14821215 0.051744785 0.89462996
0.1548658 0.052741509 0.89300144
0.16487819 0.05208312 0.89332294
0.17527997 0.052350134 0.89362997
0.18498866 0.052391186 0.89423573
0.19510673 0.052424572 0.89453185
0.20515856 0.052656785 0.89320683
0.2151106 0.05313487 0.89444643
0.22478342 0.052796945 0.89484346
0.23493785 0.052994121 0.89391053
0.24519727 0.05345723 0.89388335
0.25488696 0.053739067 0.89443898
0.26470917 0.053267144 0.89457315
0.27472737 0.053343527 0.89502108
0.28361273 0.052765518 0.89522094
-0.17066167 0.036488499 0.90691167
-0.16487175 0.037708644 0.90505159
-0.1552134 0.03791051 0.90580368
-0.14514269 0.038263407 0.90641248
-0.13484 0.038339119 0.90619355
-0.12497646 0.038134877 0.90548694
-0.11549667 0.038520034 0.90674573
-0.10489947 0.038068153 0.90757102
-0.098065905 0.038654704 0.90840703
-0.082922809 0.038809638 0.9088282
-0.075588696 0.038519349 0.90812814
-0.065090895 0.038809843 0.90810102
-0.055403665 0.039226446 0.90855336
-0.043318573 0.039251715 0.90913719
-0.034807552 0.039254777 0.90921444
-0.024748294 0.038879175 0.9082182
-0.013544354 0.038889591 0.90717298
-0.0087949997 0.038774427 0.90432149
-0.16131668 0.040734999 0.90024328
-0.15497917 0.040843584 0.90092498
-0.14419822 0.041114476 0.90135527
-0.13519189 0.041294523 0.90180516
-0.12514749 0.041356783 0.90109634
-0.11444262 0.041541975 0.90236354
-0.10470665 0.041247297 0.90311342
-0.095236219 0.041458044 0.90365571
-0.084389195 0.041459564 0.90462434
-0.074975498 0.041977122 0.90378344
-0.065316677 0.041348167 0.90297854
-0.055138413 0.041467145 0.90387368
-0.044772327 0.041622967 0.90428746
-0.035088561 0.041529581 0.90389544
-0.025108589 0.041336309 0.90323311
-0.014825159 0.041414682 0.90308589
-0.0086950753 0.041232247 0.90092498
0.12701981 0.043643165 0.90442383
0.13467519 0.044650916 0.90408605
0.14491935 0.045353185 0.90454602
0.15484536 0.044236407 0.90487862
0.16533956 0.043879826 0.90427566
0.17482954 0.044536658 0.90464944
0.18510534 0.045904331 0.90418911
0.19508541 0.045536045 0.90480959
0.20469408 0.044831958 0.90476429
0.21539234 0.044882108 0.90474683
0.22483703 0.045200318 0.90474546
0.23483856 0.045455761 0.90504527
0.24425915 0.046072576 0.90465611
0.25572184 0.046318423 0.90457511
0.26478079 0.045997892 0.90457338
0.27486822 0.046630763 0.90499741
0.2848748 0.047268264 0.90584362
0.29080197 0.046147 0.90758002
0.18871 0.050058998 0.90004998
0.19155334 0.050069999 0.90024328
0.21951 0.050058998 0.90004998
0.22191501 0.050075501 0.90033996
0.25820002 0.050081 0.90043664
0.26058 0.050058998 0.90004998
0.27829999 0.050278403 0.90063399
0.28430831 0.050258081 0.90082926
-0.15450618 0.028676758 0.91840672
-0.14613999 0.028903306 0.91905391
-0.13584667 0.029210666 0.91950661
-0.12313667 0.029210666 0.91950661
-0.119465 0.0292075 0.91940498
-0.095164783 0.029210666 0.91950673
-0.17165841 0.032107525 0.91636527
-0.1649155 0.032758366 0.91448915
-0.15478039 0.03260735 0.91372782
-0.14512269 0.033014815 0.91442925
-0.13503039 0.033122092 0.91438055
-0.12496703 0.032876115 0.91478133
-0.11503712 0.033483729 0.91457015
-0.10494903 0.033380751 0.91453946
-0.094778784 0.034324653 0.91469985
-0.085330829 0.034462351 0.91420925
-0.074833252 0.033559509 0.91448545
-0.064992413 0.034055389 0.91515726
-0.055110943 0.034864213 0.91495717
-0.045153771 0.035333801 0.91446525
-0.034955308 0.034872949 0.91482341
-0.02515579 0.034791902 0.91469288
-0.015594433 0.035695799 0.91515285
-0.0091266399 0.034992401 0.916206
0.12705345 0.037754655 0.91470754
0.1350421 0.03756357 0.91537166
0.14506742 0.036386155 0.91583967
0.15479206 0.036591891 0.91600972
0.16475958 0.037812825 0.91576403
0.17551985 0.037069213 0.91595262
0.18447033 0.036049187 0.91678905
0.19478464 0.037085902 0.91592747
0.20490353 0.037209626 0.91585165
0.21490423 0.03717152 0.91604751
0.22495925 0.037531763 0.91542715
0.23488696 0.037828535 0.91642988
0.24521841 0.038117841 0.91695255
0.25489151 0.037667882 0.91654146
0.2646915 0.038435247 0.91695333
0.27550319 0.038880687 0.91820443
0.28495196 0.038684357 0.91806561
0.29241928 0.038766928 0.91840714
-0.091377676 0.040244665 0.91026998
-0.089469999 0.040236 0.91007
0.12522501 0.040236 0.91007
0.13800001 0.0404354 0.91030997
0.14524524 0.040780954 0.91120893
0.15460737 0.040673833 0.91098315
0.162606 0.040261999 0.91066998
0.17601334 0.040426247 0.91081923
0.18289888 0.040924333 0.91139889
0.19499157 0.040676679 0.91104621
0.20550628 0.040988162 0.91106766
0.21495473 0.040747516 0.91146523
0.22557384 0.040405456 0.91062313
0.23553346 0.041104272 0.91163319
0.2450117 0.041593563 0.91227967
0.25511202 0.041425023 0.91182947
0.26535615 0.041164342 0.9121635
0.27527046 0.041866858 0.91335034
0.28513768 0.042444777 0.91306442
0.29156452 0.04241455 0.91336459
-0.17231552 0.025038844 0.92523956
-0.16519476 0.025730699 0.92510819
-0.15485509 0.025068885 0.92487282
-0.14491361 0.024885148 0.92461127
-0.13514279 0.025964122 0.92495608
-0.12494028 0.02617256 0.92464608
-0.11501793 0.025975244 0.92497933
-0.10517231 0.026752876 0.92499578
-0.09472578 0.026487732 0.92505598
-0.085243732 0.027314469 0.92568195
-0.074765205 0.027726062 0.92503262
-0.06462381 0.027031718 0.92423868
-0.055132791 0.026617941 0.92462742
-0.045308962 0.027135562 0.925255
-0.035019375 0.027542915 0.92507738
-0.024804894 0.027733356 0.92614257
-0.015025056 0.027507378 0.92644447
-0.0067488514 0.0275639 0.92632085
0.12722665 0.028628945 0.92813778
0.13466468 0.028344382 0.92789119
0.14439999 0.029171936 0.92839277
0.15544355 0.029149294 0.92827368
0.16468096 0.028936332 0.9281925
0.1745975 0.029139126 0.9286201
0.18501331 0.028857872 0.92733145
0.19412526 0.028924735 0.92804909
0.20528364 0.029424364 0.92898631
0.21357167 0.029513666 0.92903334
0.22574 0.02953 0.92954999
0.25216502 0.029520001 0.92923999
0.27618334 0.029529998 0.92954999
0.28583285 0.02929393 0.92862004
0.29191855 0.029097287 0.92892998
-0.16730167 0.030191002 0.92031997
-0.11243 0.030191001 0.92031997
-0.10721333 0.030201001 0.92062497
-0.0833335 0.030196 0.9204725
-0.054238934 0.030523999 0.92076737
-0.045387238 0.030613646 0.92121702
-0.035144307 0.030353308 0.92078918
-0.024538295 0.030611292 0.9211452
-0.01453021 0.031496335 0.92179811
-0.00791422 0.031408802 0.92247802
0.12660578 0.032573745 0.92423874
0.1349335 0.032697912 0.92317528
0.1445581 0.031510998 0.92352974
0.1553371 0.031682912 0.92360568
0.16515528 0.032904379 0.92321944
0.1745033 0.032463852 0.92375058
0.18523027 0.031487912 0.92262912
0.19522606 0.032142419 0.9233284
0.20493247 0.032251503 0.92372864
0.21502434 0.03225299 0.92427319
0.22504418 0.032716542 0.92484814
0.23492953 0.033178601 0.92528021
0.24513549 0.03337976 0.92488909
0.25501257 0.032749929 0.92468977
0.26524025 0.033442646 0.92462778
0.27501583 0.033977777 0.92450202
0.28498995 0.033636812 0.92382115
0.29355389 0.033517517 0.92433703
-0.17347123 0.017005708 0.93459862
-0.16545445 0.018094409 0.93552643
-0.15508594 0.018620243 0.93649691
-0.14487815 0.0185387 0.9349674
-0.13550453 0.018206766 0.93627942
-0.12485293 0.018311003 0.93624365
-0.1154736 0.018872196 0.93621784
-0.10435482 0.018161558 0.93798852
-0.095064364 0.017626049 0.93731517
-0.085395128 0.018428568 0.93834037
-0.075254045 0.01862745 0.9387514
-0.066774167 0.018800834 0.93929082
-0.054124996 0.0187425 0.93841815
-0.046704277 0.018845182 0.9385708
-0.021993889 0.018688999 0.93911445
-0.014706451 0.018578148 0.93872041
-0.0069082147 0.018987287 0.93933719
-0.17443664 0.020873666 0.93038005
-0.16402942 0.02122606 0.93090767
-0.15573454 0.021514136 0.93156427
-0.14505701 0.020880198 0.93067205
-0.13403799 0.021561427 0.93236035
-0.12569778 0.02170174 0.9322331
-0.11483273 0.021422729 0.93139493
-0.10474187 0.021771753 0.93279123
-0.095182963 0.021858841 0.93303144
-0.084859543 0.022211451 0.93356872
-0.075203352 0.022788607 0.93403989
-0.065401427 0.022032978 0.93502563
-0.054643456 0.02158973 0.93395692
-0.044630129 0.022226389 0.93379492
-0.035014667 0.022490423 0.93534452
-0.025131594 0.022779459 0.9345597
-0.014799288 0.022358892 0.93384397
-0.005377213 0.022511577 0.93409044
0.11983 0.024449 0.93801999
0.12497348 0.024929086 0.93453515
0.13489738 0.023771377 0.93481112
0.14507926 0.025508333 0.93509769
0.1548987 0.025462328 0.93528944
0.16517751 0.025179286 0.9348349
0.174815 0.025304884 0.93491834
0.18489194 0.025849994 0.93529671
0.19485658 0.025531335 0.93511719
0.20498534 0.026121538 0.93516904
0.21510693 0.026341205 0.93479139
0.22493048 0.026383301 0.93456048
0.23487964 0.026197003 0.93473303
0.24494691 0.026286539 0.93520302
0.25485775 0.026536871 0.93466556
0.26505831 0.026870698 0.93455994
0.274822 0.026737019 0.93416125
0.2846615 0.026291169 0.93479455
0.2952255 0.02653739 0.93496865
0.3004525 0.025416249 0.93786502
0.23740001 0.030531 0.93067199
0.24314667 0.030521667 0.93038005
-0.17636999 0.0094913002 0.94988
-0.16528749 0.0094913002 0.94988
-0.17363851 0.012114266 0.94457561
-0.16476062 0.013056619 0.94472498
-0.15513487 0.013767175 0.94443154
-0.14511044 0.01345039 0.94543546
-0.13482751 0.013903714 0.9449597
-0.12505543 0.01361181 0.94477028
-0.11486449 0.014248204 0.94481015
-0.10516211 0.013612056 0.94453549
-0.095251895 0.013178929 0.9449718
-0.084465228 0.01411062 0.94488132
-0.074852318 0.013906883 0.94431061
-0.064772889 0.014792952 0.94406712
-0.055558592 0.015112777 0.94507837
-0.044567201 0.015173227 0.94542247
-0.0348613 0.015409171 0.94442618
-0.025229864 0.015099095 0.94419187
-0.015128789 0.014779772 0.94455862
-0.0050271493 0.015575674 0.94481432
0.0042525865 0.014704643 0.94541502
0.0108845 0.012670875 0.94834501
0.11634418 0.01688792 0.94595361
0.12498242 0.016123809 0.94569415
0.13501458 0.016907372 0.94566065
0.14527488 0.016939685 0.94626844
0.15496181 0.017305663 0.94645858
0.16480049 0.017746784 0.94696605
0.17490594 0.0177995 0.94657415
0.18491824 0.017532842 0.94690812
0.19472004 0.017524064 0.94695401
0.20512025 0.017713783 0.94698852
0.21513 0.017599331 0.94696552
0.22504795 0.017393142 0.94683605
0.23478809 0.017438641 0.94685751
0.24470554 0.017948031 0.94720554
0.25469449 0.018342828 0.94749403
0.26441932 0.018323788 0.94826382
0.27468911 0.01862835 0.94850141
0.28527713 0.018850427 0.94880193
0.29490656 0.017972348 0.94757837
0.30221573 0.018456001 0.94784862
-0.037836999 0.02012 0.94024003
0.11750778 0.021349335 0.94194317
0.12383957 0.020903392 0.94118607
0.13546418 0.020293916 0.94077325
0.14565882 0.020927759 0.94151884
0.15505658 0.021089587 0.94153994
0.16494827 0.021063618 0.94189227
0.17572361 0.020970641 0.94169635
0.18526393 0.021706484 0.94224626
0.19468087 0.021358907 0.94181824
0.20502369 0.021413289 0.94204766
0.21499692 0.021559743 0.94204235
0.22491184 0.021256996 0.94223362
0.23483132 0.021069368 0.94204944
0.24499379 0.021102209 0.9421128
0.25508595 0.021511592 0.94239992
0.26500621 0.021768788 0.94300681
0.27504 0.021694971 0.94360274
0.28506285 0.021691158 0.94406366
0.29483256 0.021923231 0.94293386
0.30113 0.021745499 0.94318187
-0.18046501 0.00509645 0.95724756
-0.17492631 0.0057801325 0.95528197
-0.1651037 0.0061886981 0.95492005
-0.15535244 0.0068784663 0.95589072
-0.14472665 0.0064706071 0.95537418
-0.13523147 0.0064651356 0.95581394
-0.12495769 0.0070646317 0.95531106
-0.11507838 0.0069682365 0.95524073
-0.10507884 0.0074267657 0.95500314
-0.09474463 0.0068137594 0.95594931
-0.084956668 0.0067040869 0.95563281
-0.075341292 0.0076637105 0.95530587
-0.065082088 0.0082265688 0.9568072
-0.054531038 0.0068772668 0.95644605
-0.045342036 0.0071492754 0.95603329
-0.035183076 0.0086373165 0.9564743
-0.024309276 0.0075073768 0.95649511
-0.015565476 0.0070688655 0.95684856
-0.0052657523 0.0077467076 0.95685339
0.0045458088 0.0080051934 0.95632988
0.015069044 0.0078945067 0.95646822
0.024241412 0.0079110228 0.95746624
0.03153 0.0075965999 0.95939004
0.070850998 0.0095896004 0.95972002
0.0959545 0.0095871259 0.9594726
0.11764751 0.0092081502 0.95889503
0.12528923 0.0087284287 0.95774055
0.13444728 0.0094859283 0.95839983
0.1452128 0.0091328938 0.95825332
0.15474699 0.0090800691 0.95849907
0.16405056 0.0090815611 0.95865661
0.17553112 0.0091917329 0.95861983
0.18417445 0.0090245558 0.95847321
0.19064 0.0095830001 0.95906001
0.21495093 0.009580601 0.95881999
0.22564918 0.0094116339 0.95850998
0.23521402 0.0095757404 0.95833385
0.24221286 0.0093014855 0.95934296
0.25097999 0.0095896004 0.95972002
0.26548144 0.0095896004 0.95972008
0.28456876 0.0095896004 0.95972008
0.29357144 0.009583001 0.95906007
-0.15363285 0.010487571 0.95090145
-0.14240333 0.010483 0.95052999
-0.13468769 0.010716385 0.95103306
-0.125302 0.010484599 0.95066005
-0.11473454 0.010577637 0.95094454
-0.10725 0.010483 0.95052999
-0.092139751 0.010858625 0.95101875
-0.087793328 0.010926444 0.95096439
-0.064439699 0.010495001 0.95157605
-0.054027442 0.01132872 0.9520452
-0.045534551 0.010989334 0.95169151
-0.034850702 0.010498701 0.951904
-0.024198288 0.01077693 0.95160431
-0.014875893 0.010966999 0.95200789
-0.0052391673 0.011126363 0.95192474
0.0051213875 0.010587 0.95098603
0.014110455 0.01059391 0.95243192
0.059790254 0.014039749 0.95790499
0.06517636 0.012244036 0.95887166
0.073898099 0.012112997 0.95642531
0.088715196 0.0109768 0.9591921
0.094868444 0.0110615 0.95794612
0.10702546 0.012583849 0.95612812
0.11423603 0.012687586 0.95433414
0.12498251 0.01135618 0.95295817
0.13529684 0.012182804 0.95391262
0.14476703 0.012133158 0.95361978
0.1551348 0.012491363 0.95355165
0.16519812 0.012921929 0.95393628
0.17487654 0.012959344 0.95417345
0.185326 0.012703042 0.95376217
0.19503614 0.012888162 0.95460415
0.20499347 0.013052739 0.95484388
0.21494617 0.012856706 0.95416194
0.22494926 0.012587965 0.95381188
0.23510407 0.012687446 0.95401376
0.24515724 0.013128352 0.95474178
0.25512195 0.013575973 0.95469558
0.26508805 0.013561057 0.954503
0.27491349 0.014163329 0.95402604
0.28495765 0.014043245 0.95430511
0.29454592 0.013457221 0.95411962
0.30343646 0.013458798 0.95533246
-0.18142499 -0.0017453087 0.9669888
-0.17513643 -0.001780391 0.96647233
-0.16495483 -0.0014339377 0.96711701
-0.15476665 -0.0022057388 0.9669764
-0.14500326 -0.0018309959 0.96747351
-0.1349403 -0.0017043011 0.96731716
-0.12519222 -0.0011838843 0.96762115
-0.11436239 -0.001168518 0.96736789
-0.10369 -0.0015371534 0.96754915
-0.094705597 -0.0018306248 0.96718299
-0.085056581 -0.0015461404 0.96687645
-0.07500717 -0.0010353646 0.96802521
-0.064763062 -0.00070083735 0.96868807
-0.054391284 -0.0003660543 0.96967286
-0.043668728 -0.0010915711 0.9686811
-0.03618991 -0.0010964118 0.96854043
-0.025010454 -0.00045709361 0.96866459
-0.015121263 -0.00084108103 0.96767366
-0.005332543 -0.00036581003 0.96902704
0.0052954289 -0.00059789995 0.96909392
0.014764799 -0.00036581204 0.96902502
0.020802001 -0.00036596501 0.96942997
0.042932499 -0.00036609001 0.96977001
0.084944293 -0.0003660543 0.9696728
0.0942185 -0.00036609001 0.96977001
-0.18093801 0.0014314118 0.96185195
-0.17450887 0.0010767423 0.96149665
-0.16460925 0.0015206854 0.96233559
-0.15465377 0.0020083629 0.96206057
-0.14568286 0.0016314486 0.96236145
-0.13447103 0.001666007 0.96245521
-0.12517375 0.0021319578 0.96333754
-0.11493717 0.0021186338 0.96308821
-0.10502228 0.0025468154 0.96308297
-0.09534689 0.001916834 0.96259481
-0.084888704 0.0018132458 0.96254689
-0.074844673 0.0028379802 0.96339452
-0.065166414 0.0032964246 0.96356302
-0.055849403 0.002065391 0.9641571
-0.04471093 0.0023760868 0.96378559
-0.035231214 0.0038079701 0.96398008
-0.025997771 0.0029700138 0.96369857
-0.014735097 0.0022644517 0.96285909
-0.0053059314 0.0028540497 0.96416968
0.0047701751 0.003090119 0.964495
0.014477127 0.0029536991 0.9642958
0.024951367 0.0033729207 0.96432513
0.034448359 0.0036322742 0.96500695
0.045166876 0.0038278443 0.96497893
0.054889172 0.0049488991 0.96562767
0.064663403 0.0052239122 0.9649958
0.074869223 0.0051336247 0.96502048
0.08480715 0.0052083945 0.96444505
0.094852075 0.0047699227 0.96471888
0.10495542 0.0051517659 0.96489936
0.1143852 0.0058590942 0.96492249
0.12481394 0.0054726694 0.96484524
0.13485768 0.0050795693 0.96539867
0.14523154 0.0051204194 0.96553755
0.15517187 0.0046774019 0.96514195
0.16501197 0.0044496134 0.96531153
0.17461167 0.004990865 0.9650259
0.18500255 0.0056549157 0.96494406
0.19526818 0.00680032 0.96514142
0.20506003 0.0061753737 0.96562594
0.21480432 0.0055784043 0.96505576
0.22467835 0.0059028198 0.96523255
0.23498659 0.0062236157 0.96536559
0.24530144 0.0065625487 0.96480268
0.25516254 0.0068277167 0.96485937
0.26487324 0.0067107268 0.96554321
0.27470571 0.0058846474 0.96629214
0.28483871 0.0066930922 0.9652378
0.29485297 0.0072139474 0.9652155
0.30452821 0.0075966553 0.96498126
0.31042334 0.0046534333 0.96819335
0.058287699 0.011196301 0.96098596
0.062091287 0.011163143 0.96057856
0.077617571 0.010738428 0.96076858
0.082488284 0.010885143 0.96114862
0.10177 0.010592 0.96038997
0.19775666 0.010594334 0.96060991
0.20401667 0.010592 0.96038991
0.30691999 0.010592 0.96038997
