# .PCD v0.7 - Point Cloud Data file format
VERSION 0.7
FIELDS x y z
SIZE 4 4 4
TYPE F F F
COUNT 1 1 1
WIDTH 1391
HEIGHT 1
VIEWPOINT 0 0 0 0 1 0 0
POINTS 1391
DATA ascii
-0.15512113 -0.67881155 0.50920856
-0.14507993 -0.67817831 0.50910163
-0.1349725 -0.67888373 0.50911224
-0.12523916 -0.67961216 0.50959349
-0.1151277 -0.67907155 0.51003706
-0.10523431 -0.68010426 0.51067531
-0.094579116 -0.67974657 0.51126331
-0.084884934 -0.68043667 0.51071978
-0.074915074 -0.67964584 0.51009285
-0.065145865 -0.67927581 0.51008266
-0.054799344 -0.68034065 0.51116079
-0.045003258 -0.68012947 0.5114572
-0.035556227 -0.67993969 0.51170069
-0.024701811 -0.68027413 0.51223421
-0.015193704 -0.67970538 0.51204926
-0.0043705627 -0.67972195 0.51127392
0.0015730355 -0.67730105 0.50905919
0.11487692 -0.68096286 0.51390624
0.12237429 -0.68110383 0.51403689
-0.157965 -0.67252243 0.51004583
-0.13234124 -0.67293102 0.51035476
-0.12549753 -0.67329568 0.51063073
-0.11366857 -0.67298943 0.51039898
-0.10460623 -0.67390531 0.51126945
-0.095277183 -0.67427957 0.51150101
-0.084897064 -0.67409807 0.51129794
-0.074826859 -0.6736986 0.510827
-0.064593501 -0.6735152 0.51121801
-0.05458048 -0.67349035 0.51223737
-0.045659114 -0.67363882 0.51279473
-0.035514634 -0.67403609 0.51115525
-0.024858836 -0.67421317 0.51156145
-0.015117916 -0.67411542 0.51179695
-0.0049565351 -0.67415583 0.51220214
0.0016207383 -0.67278671 0.51042676
0.11528699 -0.67416072 0.51411211
0.12284846 -0.67441374 0.51375479
0.15748306 -0.67507172 0.51472479
0.16522069 -0.67546588 0.51519024
0.17512864 -0.67455453 0.51498085
0.1852904 -0.67464507 0.51524532
0.19489715 -0.67504823 0.51584691
0.2051684 -0.67480427 0.51575506
0.21498913 -0.67442065 0.51642895
0.22489348 -0.67458588 0.5159893
0.23485793 -0.67453605 0.51603675
0.24519572 -0.67432016 0.51662755
0.25472441 -0.67458761 0.51692742
0.26509783 -0.67365962 0.51659268
0.27086556 -0.67586255 0.51634711
-0.16109666 -0.6945225 0.50967139
-0.15443817 -0.69466424 0.50924301
-0.14548145 -0.69413769 0.50892913
-0.13529564 -0.69294208 0.50897998
-0.12481713 -0.69440383 0.50982535
-0.11529884 -0.69390613 0.50955313
-0.10496498 -0.69373798 0.50984335
-0.095042005 -0.69437909 0.50985742
-0.085455753 -0.69410473 0.50983834
-0.078745998 -0.69536591 0.51065952
-0.063569732 -0.69476604 0.51011765
-0.056157947 -0.69434744 0.51024073
-0.030593 -0.69536591 0.51065952
-0.026161624 -0.69449693 0.51036447
0.0013596866 -0.69494426 0.51016533
-0.16070001 -0.68905449 0.50948954
-0.15465814 -0.68820095 0.50961494
-0.1452051 -0.68798018 0.50952578
-0.13499774 -0.68750578 0.50846386
-0.12451756 -0.68837279 0.50956321
-0.11493463 -0.68799835 0.50966078
-0.10471137 -0.68771601 0.50982726
-0.094941154 -0.68755788 0.51049221
-0.085123308 -0.68794417 0.50991642
-0.075141251 -0.69035131 0.51108134
-0.064949714 -0.68973857 0.51097137
-0.054956626 -0.68798912 0.51033354
-0.045034692 -0.68912399 0.5109989
-0.034896716 -0.68929559 0.5116322
-0.024957271 -0.68829298 0.51154572
-0.015031816 -0.68923938 0.51275939
-0.0053654951 -0.68943346 0.5126161
0.0010064705 -0.69072568 0.51125097
0.11659866 -0.6862874 0.51287305
0.12279327 -0.68494284 0.5128144
0.15858001 -0.68847805 0.51548123
0.16498175 -0.68816006 0.51511782
0.17505151 -0.68886298 0.51600158
0.18539129 -0.68827468 0.51525599
0.19471796 -0.68740463 0.51478088
0.20524877 -0.68733269 0.51535934
0.21492802 -0.68775433 0.51508695
0.22482853 -0.68829417 0.51570213
0.23490195 -0.68821388 0.51599365
0.2450866 -0.6886462 0.51586664
0.25500506 -0.68795711 0.51510531
0.26479727 -0.68865323 0.51558387
0.27273729 -0.68937778 0.51651657
0.15820599 -0.68220425 0.51573318
0.16523352 -0.68183279 0.51548475
0.17514609 -0.68251318 0.51603818
0.1826091 -0.682275 0.51563644
0.19577202 -0.6818276 0.51548517
0.20410503 -0.68196017 0.51554865
0.21619278 -0.6820277 0.51572204
0.22490545 -0.68223286 0.51570463
0.23626408 -0.68220007 0.51603019
0.24483515 -0.68220985 0.51625454
0.25538227 -0.68182731 0.51599866
0.26466542 -0.68208206 0.51656705
0.27173167 -0.68216217 0.51625168
-0.16173972 -0.70272291 0.50860322
-0.15542214 -0.70176697 0.5083288
-0.14473373 -0.70216841 0.50889373
-0.13497764 -0.70275658 0.50995398
-0.12506367 -0.70205909 0.50931948
-0.11501878 -0.70273131 0.51000851
-0.10510954 -0.70222133 0.51059681
-0.094891645 -0.7021122 0.50967437
-0.084911831 -0.70276183 0.5102942
-0.075057603 -0.70121074 0.51056457
-0.065295942 -0.70054263 0.50977314
-0.054721244 -0.70150739 0.5112952
-0.044870116 -0.7012555 0.51097041
-0.035023507 -0.70127946 0.51130426
-0.02494509 -0.70186865 0.5105648
-0.015274661 -0.70149213 0.51138991
-0.0054129283 -0.70081574 0.51087892
0.00035070599 -0.69743991 0.5095312
0.15834901 -0.70214039 0.51440871
0.16501477 -0.70197237 0.51397276
0.17506784 -0.70201367 0.51400322
0.1849528 -0.70158941 0.5135982
0.19450162 -0.70189261 0.51403737
0.20472302 -0.70279229 0.51510918
0.21491441 -0.70258856 0.51484847
0.22418946 -0.70268565 0.51544768
0.23586249 -0.70263338 0.51564777
0.24490389 -0.70253038 0.51533866
0.25518954 -0.70291704 0.51564693
0.26368335 -0.70306283 0.51594019
0.27489999 -0.70285916 0.51579034
-0.075672001 -0.69532573 0.51173353
-0.013575933 -0.69551396 0.51231337
-0.0061678952 -0.6955173 0.51264709
0.15854469 -0.69634998 0.51463312
0.16506185 -0.69603878 0.51419783
0.175221 -0.69579023 0.51455736
0.18467471 -0.69571859 0.51399416
0.19522531 -0.69614792 0.51443684
0.20492315 -0.6970982 0.51580513
0.21467257 -0.69677418 0.51504993
0.22526145 -0.69701421 0.51562434
0.23495537 -0.69690907 0.51578194
0.24482682 -0.69674021 0.51517075
0.25495124 -0.69765836 0.51586586
0.26514193 -0.69828516 0.51594627
0.27392715 -0.69756991 0.51591516
-0.16270293 -0.71532494 0.50816023
-0.15512362 -0.71561933 0.50919098
-0.14501789 -0.71521652 0.50908148
-0.1348893 -0.71446609 0.5089857
-0.12508979 -0.71557122 0.51031262
-0.11490797 -0.7149483 0.50933081
-0.1050849 -0.71551698 0.50971651
-0.095082812 -0.71547699 0.50968736
-0.085156932 -0.71480501 0.50933677
-0.075290352 -0.7160989 0.51047295
-0.064863712 -0.71697986 0.51119167
-0.055420689 -0.71651214 0.51078254
-0.045400586 -0.71607888 0.51130563
-0.035051268 -0.71605843 0.5107832
-0.025051842 -0.71473324 0.50938004
-0.015366603 -0.71557832 0.51035714
-0.0069167204 -0.71606916 0.51090103
0.16435 -0.71695632 0.51297933
0.20858 -0.71695632 0.51297933
-0.16207249 -0.70907664 0.50844842
-0.154479 -0.70966476 0.50931382
-0.14510095 -0.70964336 0.50943565
-0.13513778 -0.70899087 0.50881803
-0.1250432 -0.70979136 0.50946486
-0.11448653 -0.70922339 0.50918049
-0.104836 -0.70976251 0.51014447
-0.094895944 -0.70949239 0.50946981
-0.084537722 -0.70913583 0.50924486
-0.074644677 -0.71012986 0.51055306
-0.064991005 -0.71136743 0.5118196
-0.055294137 -0.71046555 0.51180148
-0.045050703 -0.71064115 0.511069
-0.034966301 -0.71023548 0.51127714
-0.024888085 -0.70911133 0.50977188
-0.01485815 -0.70997965 0.51096112
-0.0072790915 -0.71059281 0.51120114
0.15828189 -0.71100765 0.51463044
0.1649231 -0.71139503 0.51418948
0.17531943 -0.71223122 0.51401806
0.18487643 -0.71144938 0.51472086
0.19574732 -0.71077508 0.51499557
0.20520507 -0.71052849 0.5142383
0.21493973 -0.71091425 0.51425868
0.22523931 -0.71078211 0.51493603
0.23465389 -0.71031076 0.51575232
0.24506678 -0.70992643 0.51527578
0.25493106 -0.70970154 0.51510161
0.26503587 -0.71015102 0.51549506
0.27467149 -0.71030033 0.51628137
0.28070337 -0.7118752 0.51653093
0.26696336 -0.70363826 0.51673383
-0.16395777 -0.73067331 0.50921947
-0.15468818 -0.73044157 0.50905782
-0.14399788 -0.73047358 0.5087595
-0.13477956 -0.7305789 0.50847071
-0.12512229 -0.73030156 0.50839961
-0.11565999 -0.73045707 0.50871813
-0.1048775 -0.7308048 0.50921744
-0.094896361 -0.7308262 0.50922382
-0.084607087 -0.73094219 0.50864154
-0.075914599 -0.73032057 0.50816584
-0.066985667 -0.73072541 0.50925547
-0.05452916 -0.73068899 0.50904322
-0.044803713 -0.73070651 0.50900191
-0.038561333 -0.73088151 0.50936425
-0.16356446 -0.72517103 0.50861084
-0.15502249 -0.72490597 0.50905782
-0.14488588 -0.72458273 0.50913656
-0.13509433 -0.72478366 0.50957382
-0.12505203 -0.72414923 0.50968635
-0.11511782 -0.72504693 0.50960529
-0.105 -0.72503603 0.50976437
-0.09495841 -0.7254647 0.51003724
-0.084932439 -0.72525567 0.5101667
-0.074795976 -0.72362643 0.50918055
-0.065043792 -0.72400075 0.50951564
-0.054725636 -0.72449291 0.50986248
-0.044792436 -0.72476166 0.51078725
-0.035334263 -0.7250855 0.51073366
-0.025162827 -0.72417659 0.51123762
-0.015227944 -0.72384828 0.51125807
-0.0076032639 -0.72367764 0.51150334
0.1565129 -0.72430056 0.51437062
0.16499779 -0.72283053 0.51318306
0.17476107 -0.72287446 0.51357704
0.18497974 -0.72261709 0.51358891
0.1950421 -0.72399062 0.5141539
0.20495175 -0.72319031 0.51402187
0.21509747 -0.72228849 0.51410604
0.22520638 -0.72274739 0.51423937
0.23476782 -0.72347087 0.51443994
0.24450728 -0.72448826 0.51554453
0.25529143 -0.72483248 0.51612806
0.26484531 -0.72457534 0.5155943
0.2751998 -0.72420382 0.51525795
0.28254655 -0.72511971 0.5148856
0.15797001 -0.71774089 0.51424038
0.16150665 -0.71754974 0.51415026
0.17876501 -0.7178579 0.51418406
0.18585101 -0.71706802 0.51429093
0.19425054 -0.7179864 0.51520014
0.20160249 -0.7178579 0.51418406
0.22162832 -0.71754974 0.51415026
0.23613778 -0.71775734 0.51488006
0.24464141 -0.71849382 0.51539224
0.255045 -0.7190398 0.51565725
0.26475793 -0.71868414 0.51514298
0.27531731 -0.71825731 0.51557785
0.28175503 -0.71856129 0.5161835
-0.168175 -0.74447167 0.50634921
-0.16469473 -0.73824644 0.5082463
-0.15507093 -0.7378152 0.50860077
-0.14534014 -0.73765057 0.50853032
-0.13507742 -0.73769802 0.50833851
-0.12504309 -0.73784906 0.50868791
-0.11498968 -0.73764461 0.50910562
-0.10491603 -0.73713696 0.50923145
-0.095005743 -0.73681027 0.50903577
-0.08536841 -0.73706222 0.50836551
-0.074712165 -0.73742014 0.50946945
-0.064751573 -0.73789549 0.50992829
-0.055044532 -0.73703647 0.50916368
-0.045280255 -0.73679268 0.50914836
-0.034907341 -0.73715764 0.50977808
-0.024911607 -0.73807096 0.51041174
-0.014727022 -0.73787743 0.51032358
-0.0064066048 -0.73796505 0.51015192
0.13828667 -0.73893213 0.51421803
0.14721923 -0.73813766 0.51363617
0.15542926 -0.7383697 0.51284027
0.16445781 -0.73857462 0.51352036
0.17532031 -0.73835361 0.51359391
0.18257166 -0.73865402 0.5140245
0.19793555 -0.73861134 0.51424682
0.20528001 -0.73808682 0.51315176
0.21350999 -0.73879123 0.51379365
0.22788998 -0.73855084 0.51428348
0.23492683 -0.73839533 0.51403338
0.2449819 -0.7384755 0.51411611
0.25240999 -0.73870319 0.51458859
0.26650876 -0.73860699 0.51460665
0.27188998 -0.7386052 0.51474756
-0.031353224 -0.7316345 0.51188856
-0.024907358 -0.73214954 0.51268673
-0.014678407 -0.73197281 0.51237541
-0.0074518397 -0.73179823 0.51253468
0.13541999 -0.73908186 0.5150795
0.14821215 -0.73406106 0.51399857
0.1548658 -0.73215181 0.51399118
0.16487819 -0.73277128 0.51359987
0.17527997 -0.73289222 0.51398838
0.18498866 -0.73338604 0.51434153
0.19510673 -0.73362052 0.51452547
0.20515856 -0.73237109 0.514027
0.2151106 -0.73317468 0.51508498
0.22478342 -0.73369002 0.51500601
0.23493785 -0.73279262 0.51468372
0.24519727 -0.73252624 0.51506352
0.25488696 -0.73285097 0.5155952
0.26470917 -0.73321301 0.51526415
0.27472737 -0.73355407 0.51556444
0.28361273 -0.73402774 0.51517761
-0.17066167 -0.7525261 0.50746882
-0.16487175 -0.75030237 0.50752991
-0.1552134 -0.75083631 0.50809675
-0.14514269 -0.75116897 0.50871682
-0.13484 -0.75094289 0.50866628
-0.12497646 -0.75044894 0.50812131
-0.11549667 -0.75131768 0.50911027
-0.10489947 -0.75225735 0.50915933
-0.098065905 -0.75266057 0.51009762
-0.082922809 -0.75293756 0.51045066
-0.075588696 -0.75249434 0.5098359
-0.065090895 -0.75231868 0.51006883
-0.055403665 -0.75248474 0.51066095
-0.043318573 -0.75296819 0.51098913
-0.034807552 -0.75303233 0.51103234
-0.024748294 -0.75238198 0.51018941
-0.013544354 -0.75148714 0.50964916
-0.0087949997 -0.74912131 0.50805324
-0.16131668 -0.74462122 0.50757909
-0.15497917 -0.74514425 0.50802964
-0.14419822 -0.745368 0.50848615
-0.13519189 -0.74565625 0.50887573
-0.12514749 -0.74502039 0.50855631
-0.11444262 -0.74600136 0.50937963
-0.10470665 -0.74679422 0.5095228
-0.095236219 -0.747145 0.509987
-0.084389195 -0.74796844 0.51049715
-0.074975498 -0.74698097 0.51049578
-0.065316677 -0.7466265 0.50953776
-0.055138413 -0.74732572 0.51010925
-0.044772327 -0.74759591 0.51045918
-0.035088561 -0.74731141 0.5101738
-0.025108589 -0.74684936 0.50966144
-0.014825159 -0.74668288 0.50965077
-0.0086950753 -0.74494004 0.50836039
0.12701981 -0.74665076 0.51224983
0.13467519 -0.74583387 0.51292986
0.14491935 -0.74585634 0.51376909
0.15484536 -0.74672604 0.51299351
0.16533956 -0.7464003 0.51237333
0.17482954 -0.7463733 0.51312864
0.18510534 -0.74526316 0.51405054
0.19508541 -0.74598461 0.51406312
0.20469408 -0.7463159 0.51344025
0.21539234 -0.74627471 0.51347375
0.22483703 -0.74610639 0.51374376
0.23483856 -0.74622726 0.51411861
0.24425915 -0.74557209 0.51443905
0.25572184 -0.74537402 0.5146057
0.26478079 -0.74554092 0.514332
0.27486822 -0.74556935 0.51509333
0.2848748 -0.74595445 0.51608026
0.29080197 -0.74802101 0.51603836
0.18871 -0.73955858 0.51541138
0.19155334 -0.7397173 0.5155223
0.21951 -0.73955858 0.51541138
0.22191501 -0.7397967 0.51557773
0.25820002 -0.73987603 0.51563323
0.26058 -0.73955858 0.51541138
0.27829999 -0.73994029 0.5159049
0.28430831 -0.74011707 0.51599014
-0.15450618 -0.76641095 0.50686038
-0.14613999 -0.7668426 0.50739312
-0.13584667 -0.76706642 0.50789249
-0.12313667 -0.76706642 0.50789249
-0.119465 -0.76698154 0.5078364
-0.095164783 -0.76706654 0.50789255
-0.17165841 -0.76287162 0.50870723
-0.1649155 -0.76093334 0.50827545
-0.15478039 -0.76036483 0.50774699
-0.14512269 -0.76074767 0.50846219
-0.13503039 -0.76064986 0.50852787
-0.12496703 -0.76112008 0.50852913
-0.11503712 -0.76062119 0.50893521
-0.10494903 -0.7606492 0.50883144
-0.094778784 -0.76028985 0.50971889
-0.085330829 -0.75980002 0.50957835
-0.074833252 -0.76050931 0.50895518
-0.064992413 -0.76082051 0.50973004
-0.055110943 -0.7602253 0.51031315
-0.045153771 -0.75956011 0.5104543
-0.034955308 -0.76010692 0.51025033
-0.02515579 -0.76003844 0.51011282
-0.015594433 -0.75995499 0.51112354
-0.0091266399 -0.76122063 0.5110783
0.12705345 -0.75849456 0.51264155
0.1350421 -0.75915998 0.51282781
0.14506742 -0.76017678 0.51207179
0.15479206 -0.76021338 0.51233619
0.16475958 -0.75936294 0.51324606
0.17551985 -0.75991404 0.51271236
0.18447033 -0.76116163 0.5122838
0.19478464 -0.75988388 0.51271337
0.20490353 -0.75975436 0.51277876
0.21490423 -0.75994104 0.51284927
0.22495925 -0.75922394 0.5128299
0.23488696 -0.75992119 0.51360917
0.24521841 -0.76021403 0.51412994
0.25489151 -0.76010054 0.51353109
0.2646915 -0.76004791 0.51440042
0.27550319 -0.76087844 0.51543665
0.28495196 -0.76086354 0.51519668
0.29241928 -0.76111072 0.51544636
-0.091377676 -0.75341052 0.51242912
-0.089469999 -0.75324488 0.5123167
0.12522501 -0.75324488 0.5123167
0.13800001 -0.75334436 0.51261246
0.14524524 -0.75392771 0.51337868
0.15460737 -0.75379193 0.51316899
0.162606 -0.75374174 0.51265401
0.17601334 -0.75378251 0.51287216
0.18289888 -0.75401407 0.51360053
0.19499157 -0.75384408 0.51320451
0.20550628 -0.75369865 0.51348078
0.21495473 -0.75416338 0.5134849
0.22557384 -0.75362653 0.51275146
0.23553346 -0.75411892 0.51387674
0.2450117 -0.754412 0.51463264
0.25511202 -0.75411743 0.51425278
0.26535615 -0.7545386 0.51420641
0.27527046 -0.75517946 0.51542765
0.28513768 -0.75463259 0.51576918
0.29156452 -0.75490385 0.51590115
-0.17231552 -0.77413619 0.50735432
-0.16519476 -0.7736609 0.50787401
-0.15485509 -0.7738083 0.50718719
-0.14491361 -0.77368224 0.50689346
-0.13514279 -0.77340889 0.50799268
-0.12494028 -0.77303559 0.50800723
-0.11501793 -0.77342284 0.50801438
-0.10517231 -0.77302825 0.50868475
-0.09472578 -0.77321881 0.50849074
-0.085243732 -0.77331716 0.50952303
-0.074765205 -0.77254838 0.50953215
-0.06462381 -0.7722376 0.50852424
-0.055132791 -0.77278572 0.50837642
-0.045308962 -0.7730478 0.50914651
-0.035019375 -0.77268267 0.50939983
-0.024804894 -0.77348906 0.51012146
-0.015025056 -0.77386463 0.51008779
-0.0067488514 -0.77372974 0.51007092
0.12722665 -0.77471632 0.5119316
0.13466468 -0.77465594 0.51155996
0.14439999 -0.77464801 0.51252759
0.15544355 -0.77455854 0.51244581
0.16468096 -0.77460134 0.51222193
0.1745975 -0.77485865 0.51261914
0.18501331 -0.77390993 0.51170284
0.19412526 -0.77448547 0.5121367
0.20528364 -0.77502042 0.51305419
0.21357167 -0.77501357 0.51315486
0.22574 -0.77544457 0.51344019
0.25216502 -0.77518606 0.51326883
0.27618334 -0.77544457 0.51344019
0.28583285 -0.77477735 0.5127508
0.29191855 -0.77514434 0.51274627
-0.16730167 -0.7672435 0.5091539
-0.11243 -0.7672435 0.5091539
-0.10721333 -0.76749778 0.50932264
-0.0833335 -0.76737064 0.5092383
-0.054238934 -0.76744926 0.50967228
-0.045387238 -0.76778477 0.50998479
-0.035144307 -0.7675575 0.50953853
-0.024538295 -0.76772487 0.50994503
-0.01453021 -0.76781553 0.51104116
-0.00791422 -0.76844001 0.51132381
0.12660578 -0.76932627 0.51323998
0.1349335 -0.76835614 0.51278704
0.1445581 -0.76928133 0.51196325
0.1553371 -0.76925564 0.51214945
0.16515528 -0.76828527 0.51298589
0.1745033 -0.76896864 0.5128901
0.18523027 -0.76852703 0.5114705
0.19522606 -0.76877826 0.51239479
0.20493247 -0.76906151 0.51269788
0.21502434 -0.7695241 0.51298517
0.22504418 -0.76976985 0.51368165
0.23492953 -0.76989472 0.51430178
0.24513549 -0.76945627 0.5142675
0.25501257 -0.7696175 0.51362687
0.26524025 -0.76920086 0.51418376
0.27501583 -0.76881272 0.51457304
0.28498995 -0.76841253 0.51392525
0.29355389 -0.7689141 0.51409471
-0.17347123 -0.78631979 0.50543541
-0.16545445 -0.78653735 0.50684917
-0.15508594 -0.7870869 0.50780642
-0.14487815 -0.78582823 0.50693357
-0.13550453 -0.78711903 0.50734031
-0.12485293 -0.78703386 0.50741029
-0.1154736 -0.78671706 0.50787425
-0.10435482 -0.78859705 0.50819969
-0.095064364 -0.7883054 0.50739032
-0.085395128 -0.78875619 0.50861174
-0.075254045 -0.78900146 0.5089969
-0.066774167 -0.78936934 0.50942779
-0.054124996 -0.78865743 0.50891972
-0.046704277 -0.78873336 0.50908726
-0.021993889 -0.78927809 0.50923997
-0.014706451 -0.78900099 0.50893867
-0.0069082147 -0.78931087 0.50961083
-0.17443664 -0.78069824 0.50651056
-0.16402942 -0.78096205 0.50708759
-0.15573454 -0.78136945 0.50767761
-0.14505701 -0.78094333 0.50666952
-0.13403799 -0.782022 0.50813603
-0.12569778 -0.78184003 0.50818861
-0.11483273 -0.78127337 0.5075109
-0.10474187 -0.78227818 0.50854141
-0.095182963 -0.78243679 0.50874168
-0.084859543 -0.78270876 0.50932395
-0.075203352 -0.78280646 0.51006258
-0.065401427 -0.78404218 0.50993747
-0.054643456 -0.78336567 0.50899887
-0.044630129 -0.78289336 0.5094555
-0.035014667 -0.78407323 0.51049423
-0.025131594 -0.78325361 0.51032788
-0.014799288 -0.78286546 0.50959402
-0.005377213 -0.78299505 0.50985342
0.11983 -0.78532088 0.51356626
0.12497348 -0.78210342 0.51214409
0.13489738 -0.78294641 0.51130396
0.14507926 -0.78227782 0.51293248
0.1548987 -0.78246516 0.51299405
0.16517751 -0.7822271 0.51251447
0.174815 -0.78223211 0.51266515
0.18489194 -0.78226769 0.51332778
0.19485658 -0.78228229 0.51296228
0.20498534 -0.7820164 0.51349175
0.21510693 -0.78157961 0.51348031
0.22493048 -0.78136104 0.51339477
0.23487964 -0.78160572 0.51332688
0.24494691 -0.78195864 0.51365
0.25485775 -0.78136981 0.51358068
0.26505831 -0.78110456 0.5138092
0.274822 -0.78083557 0.51348603
0.2846615 -0.78160858 0.51343936
0.2952255 -0.78162742 0.5137403
0.3004525 -0.7846809 0.51430786
0.23740001 -0.77587348 0.51488137
0.24314667 -0.77562994 0.51472002
-0.17636999 -0.80327022 0.50706899
-0.16528749 -0.80327022 0.50706899
-0.17363851 -0.79737884 0.50651437
-0.16476062 -0.79701084 0.50739473
-0.15513487 -0.79638791 0.50784516
-0.14511044 -0.79740858 0.50810295
-0.13482751 -0.79676557 0.50823879
-0.12505543 -0.79675776 0.50789088
-0.11486449 -0.79645735 0.50845337
-0.10516211 -0.79655784 0.5077678
-0.095251895 -0.79715663 0.50762844
-0.084465228 -0.79659021 0.50837368
-0.074852318 -0.79621166 0.50790054
-0.064772889 -0.79553896 0.50852656
-0.055558592 -0.79623139 0.50932992
-0.044567201 -0.79649252 0.50956213
-0.0348613 -0.79552078 0.50923955
-0.025229864 -0.7954843 0.5088526
-0.015128789 -0.79596406 0.50877351
-0.0050271493 -0.79576361 0.50958514
0.0042525865 -0.79673231 0.50915951
0.0108845 -0.8002938 0.50896817
0.11634418 -0.79604363 0.51130021
0.12498242 -0.7962243 0.51051372
0.13501458 -0.79578418 0.51116288
0.14527488 -0.79628432 0.5115096
0.15496181 -0.79625392 0.51192093
0.16480049 -0.79645395 0.51256287
0.17490594 -0.79609281 0.51240182
0.18491824 -0.79651701 0.51235038
0.19472004 -0.79656076 0.51236701
0.20512025 -0.79649043 0.5125466
0.21513 -0.79653096 0.51243711
0.22504795 -0.79652917 0.51219368
0.23478809 -0.79652351 0.51224363
0.24470554 -0.796552 0.51285988
0.25469449 -0.79659015 0.51334739
0.26441932 -0.7972551 0.51373559
0.27468911 -0.7972973 0.51411957
0.28527713 -0.79743636 0.5144664
0.29490656 -0.79685652 0.51307642
0.30221573 -0.79683238 0.51362997
-0.037836999 -0.78948408 0.51104891
0.11750778 -0.79028749 0.51298964
0.12383957 -0.78987753 0.51221246
0.13546418 -0.78984642 0.51147699
0.14565882 -0.79014784 0.51240802
0.15505658 -0.79008079 0.51255685
0.16494827 -0.79039425 0.51271981
0.17572361 -0.79027641 0.51253772
0.18526393 -0.79035777 0.51345277
0.19468087 -0.79017615 0.51293218
0.20502369 -0.79034275 0.51309896
0.21499692 -0.79026139 0.51322079
0.22491184 -0.79058313 0.51306367
0.23483132 -0.79052496 0.51280725
0.24499379 -0.79056162 0.51286846
0.25508595 -0.79059088 0.51336765
0.26500621 -0.79097217 0.51390535
0.27504 -0.79151803 0.51415557
0.28506285 -0.7919122 0.51439446
0.29483256 -0.790829 0.51399839
0.30113 -0.79113334 0.51397747
-0.18046501 -0.81184804 0.50719976
-0.17492631 -0.80981636 0.50674891
-0.1651037 -0.80929375 0.50690651
-0.15535244 -0.80975735 0.50800329
-0.14472665 -0.80953211 0.5073849
-0.13523147 -0.80990916 0.50761127
-0.12495769 -0.80916631 0.5078572
-0.11507838 -0.80915713 0.50773823
-0.10507884 -0.80871409 0.50800359
-0.09474463 -0.80984116 0.50797904
-0.084956668 -0.8096295 0.5077194
-0.075341292 -0.80884719 0.50836426
-0.065082088 -0.80982906 0.50963187
-0.054531038 -0.81023055 0.50829399
-0.045342036 -0.80973637 0.50830865
-0.035183076 -0.80932999 0.50980651
-0.024309276 -0.80994123 0.50885594
-0.015565476 -0.81047237 0.50866848
-0.0052657523 -0.8101204 0.50924778
0.0045458088 -0.80953914 0.50919271
0.015069044 -0.80971497 0.50917119
0.024241412 -0.81055558 0.50970954
0.03153 -0.81235772 0.51045263
0.070850998 -0.81159151 0.51232183
0.0959545 -0.81138223 0.51218975
0.11764751 -0.81108993 0.5115639
0.12528923 -0.8103596 0.51054919
0.13444728 -0.81052262 0.51154006
0.1452128 -0.81058341 0.5111627
0.15474699 -0.81082022 0.51124686
0.16405056 -0.8109535 0.5113309
0.17553112 -0.81086433 0.51140529
0.18417445 -0.81082743 0.51118606
0.19064 -0.81103337 0.51196951
0.21495093 -0.81083041 0.51184136
0.22564918 -0.81065536 0.51153475
0.23521402 -0.81041932 0.51158184
0.24221286 -0.81142205 0.51187861
0.25097999 -0.81159151 0.51232183
0.26548144 -0.81159157 0.51232183
0.28456876 -0.81159157 0.51232183
0.29357144 -0.81103343 0.51196951
-0.15363285 -0.80361599 0.50845331
-0.14240333 -0.80330235 0.50825429
-0.13468769 -0.80360782 0.50871718
-0.125302 -0.8034122 0.50832397
-0.11473454 -0.80360538 0.50855261
-0.10725 -0.80330235 0.50825429
-0.092139751 -0.80352092 0.50883067
-0.087793328 -0.80343902 0.50885981
-0.064439699 -0.80418617 0.50881404
-0.054027442 -0.80414736 0.50976986
-0.045534551 -0.8040247 0.50929528
-0.034850702 -0.80446321 0.50898945
-0.024198288 -0.80406207 0.50906879
-0.014875893 -0.80430567 0.50944251
-0.0052391673 -0.80415118 0.50953448
0.0051213875 -0.80363578 0.50858235
0.014110455 -0.80486244 0.5093478
0.059790254 -0.80770934 0.51515502
0.06517636 -0.80947518 0.51413482
0.073898099 -0.80746245 0.51273823
0.088715196 -0.8104136 0.5132249
0.094868444 -0.80930889 0.51264244
0.10702546 -0.80696219 0.51298273
0.11423603 -0.80538124 0.51212859
0.12498251 -0.80490983 0.51027286
0.13529684 -0.80528772 0.51147765
0.14476703 -0.80506462 0.51128155
0.1551348 -0.80481845 0.51155055
0.16519812 -0.80491954 0.512119
0.17487654 -0.80510175 0.5122754
0.185326 -0.80488634 0.5118413
0.19503614 -0.80550557 0.5124411
0.20499347 -0.80562311 0.51270705
0.21494617 -0.8051458 0.51218206
0.22494926 -0.80498916 0.51176947
0.23510407 -0.80510867 0.51196015
0.24515724 -0.80549651 0.51271778
0.25512195 -0.80522209 0.5130744
0.26508805 -0.80506599 0.51296055
0.27491349 -0.80434376 0.51322246
0.28495765 -0.80464435 0.51326686
0.29454592 -0.80479437 0.51267076
0.30343646 -0.80582553 0.51330924
-0.18142499 -0.82373101 0.50649536
-0.17513643 -0.82330996 0.50619423
-0.16495483 -0.82367653 0.50682765
-0.15476665 -0.82396233 0.50609708
-0.14500326 -0.82418847 0.50667709
-0.1349403 -0.82398891 0.50670278
-0.12519222 -0.82397413 0.50730526
-0.11436239 -0.82375062 0.50718528
-0.10369 -0.82409847 0.50696683
-0.094705597 -0.82394105 0.50652474
-0.085056581 -0.82353079 0.50660586
-0.07500717 -0.82423997 0.50764388
-0.064763062 -0.82462823 0.50827676
-0.054391284 -0.82529032 0.50907898
-0.043668728 -0.82482755 0.50794065
-0.03618991 -0.82471043 0.50786263
-0.025010454 -0.82448024 0.50847185
-0.015121263 -0.82383877 0.50762457
-0.005332543 -0.82474065 0.50873995
0.0052954289 -0.82491952 0.50857759
0.014764799 -0.82473898 0.50873888
0.020802001 -0.82508361 0.50895149
0.042932499 -0.82537305 0.50913
0.084944293 -0.82529026 0.50907892
0.0942185 -0.82537305 0.50913
-0.18093801 -0.81769121 0.50649995
-0.17450887 -0.81757522 0.50601149
-0.16460925 -0.81805593 0.50682998
-0.15465377 -0.81756568 0.50710046
-0.14568286 -0.81801969 0.5069378
-0.13447103 -0.81808132 0.50701648
-0.12517375 -0.8185873 0.50787646
-0.11493717 -0.8183822 0.50773412
-0.10502228 -0.81815279 0.50809574
-0.09534689 -0.81806833 0.50730324
-0.084888704 -0.81808197 0.50718993
-0.074844673 -0.81826496 0.50850713
-0.065166414 -0.81816745 0.50898576
-0.055849403 -0.81931967 0.50825036
-0.04471093 -0.81884038 0.50831956
-0.035231214 -0.81825364 0.50964016
-0.025997771 -0.81845427 0.50877917
-0.014735097 -0.81811059 0.50773787
-0.0053059314 -0.81891608 0.50892806
0.0047701751 -0.81906885 0.50929981
0.014477127 -0.81897104 0.50907904
0.024951367 -0.81877577 0.50945121
0.034448359 -0.81921965 0.51003009
0.045166876 -0.81909317 0.51018178
0.054889172 -0.81905621 0.51147646
0.064663403 -0.81837404 0.51137853
0.074869223 -0.81844252 0.51131469
0.08480715 -0.81791359 0.51107603
0.094852075 -0.81837696 0.51084673
0.10495542 -0.81832993 0.51126653
0.1143852 -0.81797802 0.51188046
0.12481394 -0.81811529 0.51151115
0.13485768 -0.81879276 0.51146734
0.14523154 -0.81888938 0.51157504
0.15517187 -0.81878555 0.51099032
0.16501197 -0.81904954 0.51088554
0.17461167 -0.8185221 0.51119608
0.18500255 -0.81810367 0.51171809
0.19526818 -0.81766987 0.5127964
0.20506003 -0.81841046 0.51251912
0.21480432 -0.81823885 0.51171166
0.22467835 -0.81821889 0.51208055
0.23498659 -0.81816357 0.51242346
0.24530144 -0.81750649 0.51241618
0.25516254 -0.81741548 0.51267153
0.26487324 -0.81805879 0.51293123
0.27470571 -0.81913006 0.51262176
0.28483871 -0.81780821 0.51275575
0.29485297 -0.81751561 0.51318729
0.30452821 -0.81711525 0.51338983
0.31042334 -0.82139456 0.51257282
0.058287699 -0.81182468 0.51435399
0.062091287 -0.81149542 0.51411182
0.077617571 -0.81188023 0.51385021
0.082488284 -0.81212652 0.5141747
0.10177 -0.81163496 0.51352668
0.19775666 -0.81182086 0.51364422
0.20401667 -0.81163496 0.51352668
0.30691999 -0.81163496 0.51352668
-0.14401001 -0.83885282 0.50551301
-0.18215956 -0.83327198 0.50724471
-0.17464119 -0.83324349 0.50668687
-0.16517289 -0.83313876 0.50714731
-0.154709 -0.83389086 0.5063988
-0.14502914 -0.83331156 0.5065363
-0.13514155 -0.83359951 0.50669831
-0.12515323 -0.83261806 0.50728822
-0.11536144 -0.83315653 0.50766736
-0.1046095 -0.83378273 0.50677472
-0.095403872 -0.83211744 0.50731593
-0.084838428 -0.83213997 0.5071609
-0.075056091 -0.83190221 0.50798333
-0.064662434 -0.83230203 0.5084914
-0.055009626 -0.83249122 0.50893825
-0.045229148 -0.83174777 0.50789815
-0.034355465 -0.83180416 0.50780988
-0.025122099 -0.8316682 0.50902504
-0.015444168 -0.83146209 0.50895613
-0.0055840481 -0.83119285 0.510001
0.0048121898 -0.83115733 0.50913119
0.014788131 -0.8314665 0.50911862
0.02507798 -0.83126807 0.50979131
0.034978744 -0.83135509 0.51017439
0.04526398 -0.83109081 0.51008219
0.055337097 -0.83142996 0.50980186
0.06482482 -0.83217943 0.50966907
0.074913912 -0.83073789 0.51010877
0.084962532 -0.83112782 0.50991279
0.095157899 -0.83073318 0.50978982
0.10490052 -0.83106959 0.5096184
0.11508079 -0.83183193 0.51073241
0.12506476 -0.83246338 0.51130188
0.13491224 -0.83217442 0.51120728
0.14542364 -0.83210844 0.51122695
0.15524982 -0.83191508 0.51034486
0.16472162 -0.83151412 0.51041716
0.17471446 -0.83186138 0.51121998
0.18522204 -0.83251995 0.51206601
0.19524342 -0.83236015 0.51138186
0.2047905 -0.83199108 0.51145655
0.215042 -0.8315953 0.5112114
0.22469656 -0.83170485 0.51140231
0.23502761 -0.83257312 0.51233798
0.24540895 -0.83258069 0.51230437
0.25385943 -0.8320502 0.51218259
0.26512766 -0.83207709 0.51207376
0.27470934 -0.83145279 0.51164949
0.28449667 -0.83243638 0.51293039
0.29574502 -0.83321542 0.51376867
0.30350003 -0.83276594 0.51329261
0.027370999 -0.82561302 0.51046067
0.068623498 -0.82542312 0.51034325
0.072145499 -0.82542312 0.51034325
0.10988 -0.82542312 0.51034325
0.11608789 -0.82621425 0.51170486
0.12464312 -0.82657504 0.51238811
0.13442224 -0.82634151 0.51166439
0.14492904 -0.82657367 0.51173121
0.15412582 -0.82605231 0.51092958
0.166235 -0.82542312 0.51034325
0.17582154 -0.82631648 0.51116872
0.18556786 -0.8269363 0.51250583
0.19484401 -0.8262077 0.51235074
0.20474258 -0.82635111 0.51163757
0.21510588 -0.82598543 0.51124775
0.22523421 -0.82641703 0.51200527
0.2349177 -0.82687175 0.51253819
0.24504498 -0.82691437 0.5128451
0.25523224 -0.82687461 0.51261669
0.26517484 -0.8264553 0.51261401
0.27462938 -0.82610714 0.51210302
0.28502756 -0.82722205 0.51307172
0.29523015 -0.82775664 0.51418179
0.30339065 -0.82758099 0.51364148
0.31158 -0.82551265 0.51276815
-0.18317591 -0.84626597 0.50625813
-0.17498331 -0.845788 0.50607085
-0.1651897 -0.84580868 0.50656182
-0.15489316 -0.84509557 0.50638175
-0.14481267 -0.84474915 0.50614393
-0.13482946 -0.84583473 0.50598305
-0.12523064 -0.84605032 0.50652087
-0.11508479 -0.84622765 0.50744522
-0.10481134 -0.84583342 0.50759315
-0.094897449 -0.84640336 0.50819176
-0.08507999 -0.84569979 0.50793958
-0.074983634 -0.84613293 0.50815147
-0.064595781 -0.84575975 0.50744337
-0.055253103 -0.84569913 0.50762641
-0.045570888 -0.84648031 0.50869507
-0.034972481 -0.84638304 0.50889498
-0.024870809 -0.84630901 0.50873238
-0.014174142 -0.84700596 0.50881827
-0.00486481 -0.84772891 0.50928974
0.0050914618 -0.84731555 0.50929928
0.014772615 -0.84680867 0.5085274
0.025007645 -0.84682941 0.50920826
0.034983322 -0.84672993 0.50956666
0.044711366 -0.84705317 0.50988722
0.055468917 -0.84715927 0.50956047
0.065263972 -0.84632868 0.50874424
0.074958108 -0.84737253 0.50917011
0.08434882 -0.84761065 0.50995725
0.094809137 -0.84718919 0.51013726
0.10444734 -0.84718865 0.51013696
0.11425364 -0.8474735 0.51049018
0.12501501 -0.84723395 0.51022136
0.13463999 -0.84718424 0.51004022
0.14419 -0.84747267 0.51048988
0.152845 -0.84766227 0.51082212
0.16516 -0.84766227 0.51082212
0.17468199 -0.84781218 0.5109126
0.18599467 -0.84750652 0.5102486
0.19516332 -0.84761226 0.51079202
0.25302997 -0.84781218 0.5109126
-0.18342142 -0.83994114 0.50769621
-0.17768002 -0.83905768 0.50682312
-0.16451222 -0.83930379 0.50697178
-0.158905 -0.83920532 0.50691229
-0.14207999 -0.83890998 0.50673395
-0.13902999 -0.83890998 0.50673395
-0.12314 -0.83941025 0.50735986
-0.11577667 -0.83956558 0.50760484
-0.10466701 -0.83956641 0.50724912
-0.095231704 -0.84087378 0.50897747
-0.085252635 -0.83996999 0.50799942
-0.074817851 -0.84028339 0.50856894
-0.065997526 -0.83960599 0.50811583
-0.055108197 -0.83971202 0.50787151
-0.045042142 -0.84059298 0.50850666
-0.034719951 -0.84035593 0.50828618
-0.024343446 -0.84042448 0.50926691
-0.01455639 -0.84124976 0.51003408
-0.0050052339 -0.84155399 0.51112539
0.0045385514 -0.84138626 0.51022297
0.015072352 -0.84066051 0.50943029
0.025221501 -0.84067434 0.50972492
0.035393447 -0.84037924 0.50984091
0.04507111 -0.84083706 0.5102511
0.054538801 -0.84105754 0.50972152
0.065346166 -0.84021878 0.50875396
0.07508567 -0.8410008 0.51052284
0.084867023 -0.84211445 0.5110274
0.094742805 -0.84170747 0.51073241
0.10491949 -0.84166473 0.5101375
0.11504002 -0.84095705 0.51030076
0.125182 -0.84039497 0.51022309
0.13516809 -0.84049046 0.51047897
0.14487341 -0.84108812 0.51081175
0.15492772 -0.84120154 0.51011831
0.16549158 -0.84121972 0.5105086
0.174752 -0.84167773 0.51134247
0.18496458 -0.84098953 0.51142901
0.19470806 -0.84142447 0.51114392
0.20505522 -0.84212917 0.51151532
0.21494135 -0.84225482 0.51194024
0.2253605 -0.84194195 0.51174796
0.2349119 -0.841573 0.5120483
0.24478018 -0.8417241 0.51210934
0.25400862 -0.84235549 0.51180506
0.26514202 -0.84163058 0.51262516
0.27509832 -0.84182751 0.51318866
0.28552771 -0.8409856 0.51355827
0.29483479 -0.84092855 0.51303148
0.30427676 -0.84100002 0.51336169
0.31358689 -0.84334791 0.51404947
-0.1842535 -0.86046177 0.50602591
-0.1752082 -0.86075813 0.50550884
-0.16443814 -0.86016977 0.50623316
-0.15455484 -0.8604905 0.50627226
-0.14518401 -0.86022383 0.50684994
-0.13479523 -0.86035943 0.5057106
-0.1252972 -0.86022151 0.50558776
-0.11596709 -0.86049885 0.50672174
-0.10541 -0.86096501 0.50783926
-0.096560337 -0.86125362 0.50811923
-0.082672007 -0.86074603 0.50741857
-0.07471177 -0.860668 0.50675553
-0.065728992 -0.86078978 0.50762653
-0.055324089 -0.8609311 0.5077281
-0.048168331 -0.86104703 0.50799716
-0.031938333 -0.86125362 0.50811923
-0.024496665 -0.86093116 0.50772798
-0.015340572 -0.86083353 0.50752717
-0.0049821259 -0.86090922 0.50791574
0.0074570202 -0.86125362 0.50811923
0.078991003 -0.86125362 0.50811923
0.081064001 -0.86125362 0.50811923
-0.18371333 -0.85503316 0.50570005
-0.17470834 -0.8548336 0.50560486
-0.16494034 -0.85448015 0.50631267
-0.15502435 -0.85439211 0.50649989
-0.14539702 -0.85442322 0.50667733
-0.13490415 -0.85458934 0.50538123
-0.1246203 -0.85449904 0.50579834
-0.11480101 -0.85462111 0.50714743
-0.10509766 -0.85512137 0.50783765
-0.095163889 -0.8550415 0.50804055
-0.084962063 -0.8555755 0.50842893
-0.075002775 -0.85491538 0.50799239
-0.065446645 -0.85530281 0.50791842
-0.054779422 -0.85573995 0.50830328
-0.04464059 -0.85631651 0.50918436
-0.03508956 -0.85577798 0.50920695
-0.025071289 -0.85467798 0.50837344
-0.014633023 -0.85506552 0.50795382
-0.004996052 -0.85432571 0.50790894
0.0046883523 -0.85435879 0.50820345
0.015372546 -0.85543656 0.50836885
0.025140891 -0.85566181 0.5091579
0.034368925 -0.85510778 0.50972122
0.045345217 -0.85427415 0.5103851
0.054977525 -0.85420811 0.50967175
0.065020867 -0.85462546 0.50944781
0.075220354 -0.85472929 0.50859284
0.085223898 -0.85451829 0.50887167
0.094956093 -0.85474694 0.50976521
0.10510807 -0.85485232 0.5105834
0.11527408 -0.85416794 0.51087701
0.12472346 -0.855187 0.51064396
0.13518214 -0.85475582 0.51016337
0.14486118 -0.85505056 0.51054615
0.1550128 -0.85458606 0.51154059
0.16510646 -0.85449612 0.51083314
0.17503856 -0.85469574 0.51052064
0.18474807 -0.85492957 0.50989687
0.19474828 -0.85435355 0.5101797
0.20474944 -0.85364026 0.51135176
0.21510541 -0.85415959 0.511729
0.22484651 -0.85417747 0.51134717
0.23517716 -0.85440493 0.51141274
0.24471748 -0.85405046 0.51191086
0.25510687 -0.8539933 0.51171517
0.26478067 -0.85467452 0.51186943
0.27496943 -0.85598016 0.51278025
0.28489703 -0.85545754 0.51275665
0.29492116 -0.85438788 0.51270759
0.30492383 -0.85516709 0.51351434
0.31471029 -0.8555578 0.51393342
0.32032001 -0.85682398 0.51392365
0.215306 -0.84800076 0.51222509
0.22103 -0.84788096 0.51215273
0.239005 -0.84788096 0.51215273
0.24671 -0.84788096 0.51215273
0.26545215 -0.84850681 0.5129596
0.27546459 -0.8497805 0.5143519
0.28410459 -0.84941608 0.5139311
0.29480714 -0.84822458 0.51236027
0.30521762 -0.84895355 0.51357746
0.31450245 -0.84962922 0.51425999
-0.19025999 -0.87350047 0.50623304
-0.18518944 -0.8693431 0.50637001
-0.17477964 -0.86933178 0.50579488
-0.16505811 -0.86866194 0.50588191
-0.15486903 -0.8689636 0.50550097
-0.14524511 -0.86856145 0.50639325
-0.13511395 -0.86932045 0.50681931
-0.12458485 -0.86917329 0.50642335
-0.11480559 -0.86828202 0.50696117
-0.10499816 -0.86851037 0.5076443
-0.094900012 -0.86843181 0.50806713
-0.085305251 -0.86815792 0.50701714
-0.075378396 -0.86830264 0.50675273
-0.064951718 -0.86803317 0.50793451
-0.055050537 -0.86764312 0.50764829
-0.044969909 -0.86723864 0.50795883
-0.035561375 -0.86714381 0.50812244
-0.025133243 -0.86724359 0.50751805
-0.014786815 -0.86733305 0.50731146
-0.0052518719 -0.86763746 0.50862265
0.0046048537 -0.86761224 0.50917524
0.015161857 -0.86746222 0.5092814
0.025082514 -0.86830509 0.508515
0.034947719 -0.8680672 0.50846642
0.044717055 -0.86906016 0.51035273
0.05489983 -0.86859345 0.51079684
0.065256543 -0.86912519 0.51036108
0.074475735 -0.8674739 0.50959468
0.085001789 -0.86737716 0.50926983
0.09510868 -0.86797452 0.50955397
0.10499953 -0.86854202 0.51024526
0.1150077 -0.86898172 0.51022494
0.12466522 -0.86845398 0.50976998
0.13500161 -0.86798555 0.51031941
0.14510247 -0.86786741 0.50981492
0.15506209 -0.86849219 0.5100382
0.1648412 -0.86891401 0.51047665
0.17494699 -0.86766237 0.51004982
0.18467279 -0.86711818 0.50949192
0.19484334 -0.86743379 0.50997919
0.20498192 -0.86891484 0.51052845
0.21462737 -0.86879051 0.51068056
0.22474422 -0.86841279 0.5108937
0.235285 -0.86924851 0.51089293
0.2451271 -0.86858213 0.5111109
0.25480744 -0.86901122 0.51169187
0.26501334 -0.86812019 0.51109105
0.27497241 -0.86847705 0.51116633
0.28492594 -0.86894625 0.51148736
0.29482353 -0.86951923 0.51220566
0.30475208 -0.86971414 0.51219893
0.31540856 -0.86904889 0.51196557
0.322106 -0.86935866 0.51168561
0.037584271 -0.86182278 0.51031733
0.044590458 -0.86243522 0.51107734
0.054543842 -0.86216664 0.51043451
0.0648674 -0.86285865 0.51093549
0.072864801 -0.86181968 0.5096578
0.096704721 -0.86150956 0.50947475
0.10548611 -0.86230671 0.51061606
0.11486039 -0.86230046 0.51101446
0.12522611 -0.86192101 0.5103206
0.13459733 -0.86209714 0.51022351
0.14614429 -0.86175162 0.51004809
0.15550439 -0.86207205 0.51091659
0.16459849 -0.86246246 0.51070142
0.17515102 -0.86200052 0.50976449
0.18499874 -0.8613373 0.50937313
0.19554751 -0.86180615 0.5098508
0.20527184 -0.86223668 0.51111072
0.21496554 -0.86266029 0.51144511
0.22352426 -0.86233646 0.51088238
0.23818876 -0.86172497 0.51095808
0.24475554 -0.86227053 0.51130915
0.25512373 -0.86267889 0.51178706
0.26478824 -0.86227 0.51104409
0.27496696 -0.86239702 0.51124746
0.28485963 -0.86260563 0.51157039
0.29504359 -0.8637051 0.51274848
0.30559966 -0.86360109 0.51308584
0.3151027 -0.8626377 0.51278806
0.32124251 -0.86344963 0.51283634
-0.1911025 -0.88187975 0.50515294
-0.18512781 -0.88155878 0.50595737
-0.17473218 -0.88159895 0.50568438
-0.16491562 -0.88176006 0.50536907
-0.15541442 -0.88115698 0.50548941
-0.14518298 -0.88159692 0.50605357
-0.13522604 -0.88262546 0.50667673
-0.12516743 -0.88236529 0.50665152
-0.11525034 -0.88289142 0.50728512
-0.10480362 -0.88212979 0.50632626
-0.094946325 -0.8808881 0.50569355
-0.085103877 -0.88184637 0.50685227
-0.074507698 -0.88262075 0.50685698
-0.065451503 -0.88270777 0.50661016
-0.055573538 -0.88302082 0.50778598
-0.045544311 -0.88326651 0.50830811
-0.035831995 -0.88353002 0.50887102
-0.024015384 -0.883497 0.50850552
-0.014959637 -0.88289982 0.50785482
-0.0050162305 -0.88333583 0.5083077
0.0050760778 -0.88342929 0.50839305
0.014819666 -0.88346571 0.50865138
0.024993798 -0.88219154 0.50761253
0.035040274 -0.88277614 0.50794947
0.045108397 -0.88327515 0.50884587
0.056224 -0.88365912 0.50906813
0.065426365 -0.88338149 0.50879633
0.072599754 -0.88354367 0.5090012
0.086348832 -0.88365912 0.50906813
0.094525643 -0.88331854 0.50875998
0.10167667 -0.88365912 0.50906813
0.11278667 -0.88377446 0.50913501
0.16478333 -0.88388985 0.509202
0.216942 -0.88388985 0.509202
0.22011 -0.88388985 0.509202
-0.19054 -0.87562388 0.50564897
-0.18439414 -0.87620407 0.50618458
-0.175155 -0.87617618 0.50608718
-0.16519445 -0.87582636 0.50576532
-0.15809 -0.87582624 0.50576526
-0.1434177 -0.87612575 0.50640297
-0.13532428 -0.8767398 0.50704134
-0.12493581 -0.87634695 0.50670207
-0.11487997 -0.8769787 0.50738871
-0.10477683 -0.87626755 0.50689948
-0.095218785 -0.87578726 0.506347
-0.085162014 -0.87622505 0.50644815
-0.074341208 -0.87675977 0.5072118
-0.064865835 -0.87659413 0.5077312
-0.054892715 -0.8772189 0.50793159
-0.044848997 -0.87767613 0.50813073
-0.035030995 -0.87791371 0.50878775
-0.025222175 -0.87808591 0.50844842
-0.014877069 -0.87708628 0.50778151
-0.0048291911 -0.87743843 0.50894612
0.0049358741 -0.87756544 0.50919324
0.014753186 -0.87747222 0.50902534
0.024348564 -0.87652397 0.50745881
0.035181191 -0.87681633 0.50754684
0.045352221 -0.87725443 0.50915533
0.054254118 -0.87791109 0.51012617
0.065688118 -0.87754643 0.50896895
0.075223625 -0.87783748 0.5097788
0.084718458 -0.87751192 0.50936782
0.094971433 -0.87691933 0.50892121
0.10509627 -0.87771142 0.50953877
0.11492666 -0.87739253 0.50911748
0.12524073 -0.87798637 0.50943649
0.13503301 -0.87793505 0.51040298
0.1445927 -0.87842041 0.51062882
0.15502356 -0.87828326 0.50970995
0.16494533 -0.8778972 0.50980645
0.17484646 -0.87799662 0.51063353
0.18542956 -0.87777799 0.51018047
0.19512066 -0.87802136 0.51083237
0.20518598 -0.87781465 0.50996792
0.21523012 -0.87746227 0.50972861
0.22485985 -0.87774163 0.51057202
0.23334099 -0.87857682 0.51144356
0.24527666 -0.87714368 0.51119453
0.25512043 -0.87629211 0.51138669
0.26464942 -0.87668872 0.51149511
0.27462545 -0.87692291 0.5115127
0.28512445 -0.87657195 0.51179135
0.29523489 -0.87601167 0.51170355
0.30441335 -0.87615925 0.51147157
0.31504348 -0.87515658 0.51176703
0.32274953 -0.87663835 0.51164412
-0.19236 -0.89691019 0.50562501
-0.18426666 -0.8971796 0.50550562
-0.17592143 -0.89743251 0.50592107
-0.16522858 -0.89733297 0.50586462
-0.15884 -0.89743251 0.50592107
-0.14292429 -0.89712685 0.50557321
-0.13503684 -0.89677709 0.50477844
-0.12561221 -0.89727765 0.50583327
-0.11382999 -0.89743251 0.50592107
-0.1078525 -0.8972584 0.50582236
-0.070193 -0.89673603 0.5055263
-0.065741196 -0.8971709 0.50577366
-0.059571002 -0.89743251 0.50592107
-0.19165066 -0.89137757 0.50558895
-0.18457201 -0.89009368 0.50567955
-0.17532499 -0.89105237 0.50565392
-0.16507781 -0.8916347 0.50559306
-0.15475501 -0.89198619 0.50633657
-0.14488617 -0.89057678 0.50598496
-0.13483621 -0.89018345 0.50553292
-0.12463979 -0.89063698 0.50616956
-0.11486559 -0.8909601 0.50641811
-0.10533023 -0.89093482 0.50623977
-0.095305987 -0.89158148 0.50714785
-0.084657058 -0.89103043 0.50823033
-0.07535474 -0.89102209 0.50662202
-0.064678408 -0.89051926 0.50579065
-0.05497079 -0.89080256 0.50698584
-0.04494052 -0.89083111 0.50779212
-0.03498492 -0.89023387 0.50833422
-0.02537952 -0.89048433 0.5083971
-0.015242386 -0.89009756 0.50795531
-0.0050230124 -0.89011633 0.50849426
0.0051642815 -0.89043945 0.50823426
0.01521936 -0.89030778 0.50826752
0.024964035 -0.89067733 0.50778705
0.034861401 -0.89078665 0.5077942
0.044840693 -0.88949037 0.50837088
0.054986786 -0.88988888 0.50871027
0.064770825 -0.88972443 0.5084067
0.075059235 -0.88965207 0.5091573
0.08469779 -0.88917214 0.50928152
0.095266841 -0.88946348 0.50913036
0.1051575 -0.88999838 0.50948435
0.11511326 -0.88989294 0.50966054
0.12504853 -0.88964587 0.51016194
0.13515475 -0.88944131 0.50998133
0.14486089 -0.88950956 0.50965101
0.15470965 -0.88992119 0.51021725
0.16518679 -0.88969433 0.50962204
0.17491075 -0.88911515 0.51026297
0.18505223 -0.88906729 0.51031649
0.19488619 -0.88909566 0.51027739
0.20454666 -0.88917768 0.51031923
0.21482301 -0.8895818 0.50973922
0.22528394 -0.88910311 0.50935417
0.23456636 -0.88954049 0.5108791
0.24474025 -0.88983315 0.51191545
0.25325239 -0.88960201 0.51167017
0.26558766 -0.88916671 0.51182872
0.27484867 -0.8898176 0.51236707
0.28544173 -0.88961041 0.51212531
0.29490808 -0.89004362 0.51217908
0.3050434 -0.88964993 0.51182741
0.31483868 -0.89014333 0.51197106
0.32465553 -0.8905282 0.51281172
0.17636999 -0.88338602 0.51135063
0.19911 -0.88338602 0.51135063
0.23670891 -0.88407034 0.5120188
0.243909 -0.88419253 0.51206201
0.25589669 -0.88338602 0.51135063
0.26545998 -0.88368708 0.51183063
0.27571833 -0.88429731 0.51228583
0.28477687 -0.8838793 0.51221496
0.29455709 -0.8841784 0.51238513
0.30384624 -0.8841325 0.51178336
0.31546134 -0.88426018 0.51234597
0.32423747 -0.88532609 0.51308614
-0.18205501 -0.91108519 0.50208122
-0.17530271 -0.91055739 0.50078368
-0.16971 -0.90922928 0.50147063
-0.1517625 -0.91138834 0.50235164
-0.14726168 -0.90813828 0.50025553
-0.089250997 -0.91124678 0.502581
-0.19335607 -0.90353137 0.50469732
-0.18391773 -0.90399075 0.50434577
-0.17478003 -0.90398735 0.50428593
-0.16496229 -0.90401381 0.50444138
-0.15488231 -0.90447986 0.50491738
-0.14509502 -0.90352631 0.50406921
-0.13492607 -0.90261889 0.50387794
-0.12485716 -0.90345252 0.50527155
-0.11538187 -0.90324873 0.50539088
-0.10464445 -0.90428919 0.505575
-0.094971217 -0.9054842 0.5059002
-0.085560508 -0.90469658 0.50688547
-0.075157039 -0.90362811 0.50761831
-0.064369716 -0.90511799 0.50617588
-0.05488557 -0.90449172 0.50582767
-0.044944532 -0.90464151 0.5066011
-0.035017967 -0.90496367 0.50723058
-0.025377542 -0.90361285 0.50819707
-0.014689026 -0.9034068 0.50850725
-0.0052654273 -0.90389919 0.50844437
0.0051999693 -0.90411037 0.50798953
0.015233341 -0.90502203 0.50674653
0.024277166 -0.90495837 0.5067966
0.03494966 -0.90338314 0.50855047
0.045555886 -0.90382028 0.50942814
0.054843586 -0.90343267 0.50864971
0.064652197 -0.90323043 0.50871933
0.075070076 -0.90380442 0.5093118
0.085399374 -0.90451276 0.50986487
0.094866462 -0.90453023 0.50953424
0.10473595 -0.9037472 0.50928557
0.11504393 -0.90383947 0.50948691
0.12492999 -0.9039492 0.50959265
0.13510709 -0.90413231 0.50917572
0.14496107 -0.9034034 0.50853783
0.15491621 -0.90373456 0.50877106
0.16466382 -0.90366006 0.50910288
0.17466149 -0.9032532 0.50957066
0.18472384 -0.90430248 0.50983918
0.19492944 -0.90416855 0.5103339
0.20473889 -0.90474439 0.51065987
0.21457167 -0.90481478 0.51076776
0.22458 -0.9042123 0.51085323
0.23484002 -0.9042781 0.51101309
0.24442875 -0.90468317 0.51070207
0.25431857 -0.9051398 0.51105875
0.26192001 -0.90488786 0.5113582
0.27447554 -0.90448326 0.5102371
0.28755426 -0.90485048 0.51098335
0.2948043 -0.9050141 0.51054668
0.30541226 -0.9047665 0.51044708
0.31529051 -0.90463448 0.51047391
0.32417998 -0.90430295 0.51102728
0.33250999 -0.90357995 0.51062119
-0.15041 -0.89756799 0.50722456
-0.10078 -0.89787364 0.50739568
-0.094748825 -0.89801073 0.5080303
-0.085185498 -0.89765835 0.50857729
-0.077269249 -0.89787364 0.50739568
-0.052137248 -0.89756799 0.50722456
-0.043603249 -0.89772707 0.5074665
-0.034306284 -0.89787948 0.50801182
-0.025539415 -0.89772564 0.50833338
-0.01407909 -0.89755452 0.50866556
-0.0053908201 -0.89751166 0.50899553
0.0049407701 -0.89783156 0.50851095
0.014834813 -0.89775878 0.50786722
0.025089364 -0.89821953 0.50781333
0.034959 -0.89824194 0.50809377
0.045389745 -0.89784676 0.50891447
0.054743998 -0.89792711 0.50865221
0.064938463 -0.89794481 0.50847411
0.075399399 -0.89790875 0.50929296
0.084913731 -0.89850688 0.51016271
0.094603337 -0.89872688 0.51019788
0.10529527 -0.89815831 0.50949436
0.1151476 -0.89779401 0.50970656
0.12506723 -0.89820677 0.50999701
0.1346309 -0.89799869 0.50964195
0.14589375 -0.89764607 0.50895411
0.1558532 -0.89782667 0.50977468
0.16468865 -0.89799851 0.509642
0.17502348 -0.89790428 0.50982046
0.18497632 -0.89849639 0.51024503
0.19525272 -0.89857709 0.51020247
0.20527335 -0.89898723 0.51068711
0.2148717 -0.89895004 0.51054561
0.22432852 -0.89922816 0.51018912
0.23554811 -0.89879519 0.51075751
0.24516433 -0.89852029 0.51141882
0.25486365 -0.89876032 0.5116356
0.26487404 -0.89855665 0.5114674
0.27496439 -0.89802223 0.51159281
