# .PCD v0.7 - Point Cloud Data file format
VERSION 0.7
FIELDS x y z rgb
SIZE 4 4 4 4
TYPE F F F U
COUNT 1 1 1 1
WIDTH 1082
HEIGHT 1
VIEWPOINT 0 0 0 1 0 0 0
POINTS 1082
DATA ascii
0.049937502 -0.033214781 0.76616818 9069659
0.051161647 -0.033214781 0.76616818 6179642
0.052360151 -0.033198528 0.7657932 5850677
0.053583689 -0.033198528 0.7657932 5393208
0.054780398 -0.033182271 0.76541823 8156514
0.055985052 -0.033171434 0.76516825 9211770
0.057170216 -0.03314976 0.76466829 8553840
0.058391962 -0.03314976 0.76466829 6512970
0.059564989 -0.03312267 0.76404339 5197110
0.060736015 -0.033095576 0.76341844 6378040
0.061905045 -0.033068486 0.76279348 6641212
0.0631238 -0.033068486 0.76279348 7751736
0.064279288 -0.033035975 0.7620436 7488564
0.065432385 -0.033003464 0.76129365 7617332
0.06658309 -0.032970954 0.76054376 7880504
0.067798249 -0.032970954 0.76054376 6701886
0.068945348 -0.032938443 0.75979382 10583673
0.070090063 -0.032905933 0.75904393 9472122
0.071220629 -0.032868005 0.758169 9406329
0.072431996 -0.032868005 0.758169 9406329
0.07357052 -0.032835495 0.75741911 9406329
0.074694298 -0.032797564 0.75654417 9472122
0.075802743 -0.03275422 0.7555443 9472122
0.077009909 -0.03275422 0.7555443 9472635
0.078113563 -0.032710869 0.75454438 9406842
0.079214029 -0.032667525 0.75354451 9406842
0.080324627 -0.032629594 0.75266957 9406842
0.081527196 -0.032629594 0.75266957 9276026
0.082633615 -0.032591667 0.7517947 9276026
0.083737224 -0.032553736 0.75091976 9341819
0.084852181 -0.032521229 0.75016987 9341819
0.086050764 -0.032521229 0.75016987 9276026
0.087133043 -0.032477878 0.74916995 9341819
0.088226877 -0.032439951 0.74829507 9341819
0.089317903 -0.03240202 0.74742013 9407612
0.090512097 -0.03240202 0.74742013 9341819
0.091598935 -0.032364093 0.74654526 9407612
0.092682973 -0.032326166 0.74567032 9538428
0.093764231 -0.032288235 0.74479544 9538428
0.094954215 -0.032288235 0.74479544 9538428
0.096015133 -0.032244887 0.74379551 9538428
0.097089194 -0.03220696 0.74292064 9604221
0.09814392 -0.032163613 0.74192071 9604221
0.099329323 -0.032163613 0.74192071 9603708
0.10037926 -0.032120265 0.74092084 9603708
0.10142601 -0.032076918 0.73992097 9603962
0.10246955 -0.03203357 0.73892105 9603962
0.10365016 -0.03203357 0.73892105 9471088
0.10470665 -0.031995643 0.73804617 9405295
0.10576032 -0.031957712 0.73717123 9798249
0.10679309 -0.031914368 0.73617136 9864042
0.10796931 -0.031914368 0.73617136 10190950
0.10897874 -0.0318656 0.73504645 10388329
0.10992839 -0.031800579 0.73354661 10520169
0.11104363 -0.031784326 0.7331717 10783341
0.11221506 -0.031784326 0.7331717 11247503
0.11332849 -0.031768069 0.73279673 11576468
0.11449932 -0.031768069 0.73279673 11052448
-0.0377784 -0.030654652 0.73417157 10592669
-0.03660538 -0.030654652 0.73417157 10592669
-0.035480618 -0.0306964 0.73517144 10919056
-0.034305997 -0.0306964 0.73517144 10392712
-0.033176444 -0.030738151 0.73617136 10520939
-0.032043692 -0.0307799 0.73717123 10389353
-0.030902516 -0.030816432 0.73804617 10715999
-0.029723305 -0.030816432 0.73804617 10715999
-0.028582765 -0.03085818 0.73904604 10781279
-0.027443666 -0.030905148 0.7401709 10978658
-0.026305405 -0.030957337 0.74142081 10914412
-0.025154684 -0.030999085 0.74242067 11177584
-0.023968482 -0.030999085 0.74242067 10916990
-0.022820637 -0.031051271 0.74367052 11048576
-0.021661527 -0.031093022 0.74467045 11115402
-0.020506093 -0.031145209 0.7459203 10983816
-0.0193143 -0.031145209 0.7459203 10918284
-0.018146804 -0.031186961 0.74692023 10852491
-0.016978947 -0.031233927 0.74804509 10655882
-0.015810134 -0.031286113 0.74929494 10524296
-0.014632452 -0.031327866 0.75029486 10261640
-0.013433672 -0.031327866 0.75029486 10064261
-0.012249157 -0.031364396 0.75116974 10064261
-0.011063688 -0.031406146 0.75216967 10064261
-0.0098750209 -0.031447895 0.75316954 10064261
-0.0086716479 -0.031447895 0.75316954 10064261
-0.0074769491 -0.031484425 0.75404441 9998468
-0.0062784166 -0.031515736 0.75479436 10064261
-0.0050783269 -0.03155227 0.7556693 9998468
-0.0038760814 -0.031594019 0.75666916 9998468
-0.0026671165 -0.031594019 0.75666916 10064261
-0.0014595967 -0.03162533 0.75741911 10064261
-0.0002496806 -0.031656642 0.758169 10064007
0.00096263189 -0.031687956 0.75891894 10129800
0.0021751914 -0.031687956 0.75891894 10393226
0.0033910982 -0.031719267 0.75966883 10524812
0.0046094013 -0.031750578 0.76041877 10919056
0.0058301012 -0.031781889 0.76116866 11379607
0.0070531974 -0.031813204 0.7619186 12169896
0.0082705496 -0.031813204 0.7619186 11840931
0.0094972411 -0.031844515 0.76266855 11708832
0.010726327 -0.031875826 0.76341844 9932421
0.011955854 -0.031901922 0.76404339 10064007
0.013176601 -0.031901922 0.76404339 9932421
0.01440677 -0.031922795 0.76454329 9998214
0.015638536 -0.031943671 0.76504326 9998214
0.016871898 -0.031964544 0.76554322 9932675
0.018103905 -0.031980202 0.7659182 9932675
0.019327646 -0.031980202 0.7659182 9932675
0.020558096 -0.03199064 0.76616818 9866882
0.021789346 -0.032001074 0.7664181 9866882
0.023017639 -0.032006294 0.76654309 9801089
0.024242381 -0.032006294 0.76654309 9735809
0.025471274 -0.032011513 0.76666808 9604223
0.026691863 -0.032006294 0.76654309 9276280
0.027916601 -0.032006294 0.76654309 8881522
0.029136593 -0.032001074 0.7664181 7170900
0.03035618 -0.031995855 0.76629311 6118212
0.031575374 -0.03199064 0.76616818 6046772
0.032799516 -0.03199064 0.76616818 6244151
0.034023657 -0.03199064 0.76616818 8607307
0.035247799 -0.03199064 0.76616818 8607307
0.036465991 -0.031985421 0.76604319 8805456
0.037689935 -0.031985421 0.76604319 8937042
0.038913876 -0.031985421 0.76604319 9924448
0.04013782 -0.031985421 0.76604319 9595483
0.041368511 -0.03199064 0.76616818 8871762
0.042592652 -0.03199064 0.76616818 8740176
0.043816794 -0.03199064 0.76616818 8805456
0.045040935 -0.03199064 0.76616818 8673870
0.046265077 -0.03199064 0.76616818 8474953
0.047489218 -0.03199064 0.76616818 7685437
0.048721302 -0.031995855 0.76629311 8407877
0.049937502 -0.03199064 0.76616818 7684154
0.051161647 -0.03199064 0.76616818 6702390
0.052368697 -0.031980202 0.7659182 6373425
0.053592436 -0.031980202 0.7659182 5915956
0.054789342 -0.031964544 0.76554322 7231816
0.055985052 -0.031948891 0.76516825 6578763
0.057170216 -0.031928014 0.76466829 6578763
0.058391962 -0.031928014 0.76466829 5986878
0.059564989 -0.031901922 0.76404339 4999983
0.060736015 -0.031875826 0.76341844 5851696
0.061905045 -0.031849734 0.76279348 6312247
0.0631238 -0.031849734 0.76279348 7358775
0.064279288 -0.031818423 0.7620436 7161396
0.065432385 -0.031787109 0.76129365 7355443
0.06658309 -0.031755798 0.76054376 7289650
0.067798249 -0.031755798 0.76054376 8810598
0.068934008 -0.031719267 0.75966883 9994872
0.070078522 -0.031687956 0.75891894 9472122
0.071220629 -0.031656642 0.758169 9406329
0.072431996 -0.031656642 0.758169 9406329
0.07357052 -0.03162533 0.75741911 9406329
0.07468196 -0.031583581 0.75641918 9472124
0.075790204 -0.031541832 0.75541931 9406331
0.076997176 -0.031541832 0.75541931 9406844
0.078100622 -0.031500079 0.75441939 9406844
0.079200886 -0.031458333 0.75341952 9406844
0.080297947 -0.03141658 0.75241959 9406844
0.08150012 -0.03141658 0.75241959 9406844
0.082592398 -0.031374831 0.75141972 9406844
0.083709344 -0.03134352 0.75066978 9406844
0.084809773 -0.031306989 0.7497949 9406844
0.086007752 -0.031306989 0.7497949 9276028
0.087074898 -0.031260021 0.74867004 9276028
0.088167928 -0.031223489 0.7477951 9276028
0.089243233 -0.031181742 0.74679524 9276028
0.090436421 -0.031181742 0.74679524 9276028
0.091522254 -0.031145209 0.7459203 9276028
0.0926053 -0.031108679 0.74504542 9472637
0.093685552 -0.031072147 0.74417049 9472637
0.094874538 -0.031072147 0.74417049 9538428
0.095950596 -0.031035617 0.74329561 9538428
0.097023852 -0.030999085 0.74242067 9538428
0.098077789 -0.030957337 0.74142081 9538428
0.099262394 -0.030957337 0.74142081 9538428
0.10029459 -0.030910367 0.74029589 9538428
0.10130607 -0.03085818 0.73904604 9604475
0.10234822 -0.030816432 0.73804617 9604475
0.10352743 -0.030816432 0.73804617 9538169
0.10456479 -0.030774681 0.73704624 9406583
0.10559894 -0.030732932 0.73604637 9535852
0.10661178 -0.030685965 0.73492151 9535852
0.107786 -0.030685965 0.73492151 9862757
0.10879344 -0.030638995 0.7337966 9994343
0.10977855 -0.030586809 0.73254675 10388070
0.11094898 -0.030586809 0.73254675 10651242
0.11211941 -0.030586809 0.73254675 10390646
0.11325117 -0.030576371 0.73229676 11640713
0.1144212 -0.030576371 0.73229676 11183003
0.11559122 -0.030576371 0.73229676 11248796
-0.042296953 -0.029361179 0.73117191 10658209
-0.041128725 -0.029361179 0.73117191 10658209
-0.0399605 -0.029361179 0.73117191 10592416
-0.038838688 -0.02939631 0.73204678 10526623
-0.037701223 -0.029421406 0.73267174 10657431
-0.036574222 -0.029456537 0.73354661 10328466
-0.035444427 -0.029491672 0.73442155 10784374
-0.034271006 -0.029491672 0.73442155 10389616
-0.033137016 -0.029526804 0.73529643 10781794
-0.032011095 -0.029571977 0.73642135 10716001
-0.030871116 -0.029607108 0.73729622 10714970
-0.029693102 -0.029607108 0.73729622 10714970
-0.028558595 -0.029652279 0.73842108 10781279
-0.027415862 -0.029692432 0.73942101 10978658
-0.026274363 -0.029737603 0.74054587 10914673
-0.025129275 -0.029782774 0.74167079 11243638
-0.023944274 -0.029782774 0.74167079 10916992
-0.022797626 -0.029832965 0.74292064 10982785
-0.021643348 -0.029878134 0.7440455 10852230
-0.020488914 -0.029928327 0.74529541 10786437
-0.019298121 -0.029928327 0.74529541 10721159
-0.018134657 -0.029973496 0.74642026 10721159
-0.016964763 -0.030013647 0.74742013 10720905
-0.015796948 -0.03006384 0.74867004 10589319
-0.014622702 -0.030109009 0.7497949 10261124
-0.013424721 -0.030109009 0.7497949 10195331
-0.012243043 -0.03014916 0.75079477 10064261
-0.011058171 -0.030189313 0.7517947 10064261
-0.0098701045 -0.030229464 0.75279456 10064261
-0.0086673303 -0.030229464 0.75279456 10064261
-0.0074732318 -0.030264599 0.7536695 9998468
-0.006276337 -0.030299731 0.75454438 9998468
-0.0050766468 -0.030334866 0.75541931 9998468
-0.0038741606 -0.030369997 0.75629419 9998468
-0.0026657947 -0.030369997 0.75629419 9998468
-0.0014588741 -0.030400112 0.75704414 10064261
-0.00024955711 -0.030430224 0.75779402 10064261
0.00096231478 -0.030465359 0.75866896 10064261
0.0021744748 -0.030465359 0.75866896 10261640
0.0033899825 -0.030495472 0.75941885 10393226
0.0046078861 -0.030525587 0.76016879 10721677
0.0058281869 -0.030555701 0.76091874 10919056
0.0070508835 -0.030585814 0.76166862 11248281
0.0082678357 -0.030585814 0.76166862 11906211
0.0094941277 -0.03061593 0.76241857 12695727
0.010721059 -0.030641023 0.76304346 10064007
0.011949987 -0.030666118 0.76366842 10064007
0.013170135 -0.030666118 0.76366842 9998214
0.014399705 -0.030686196 0.76416838 9998214
0.015630871 -0.03070627 0.76466829 9998214
0.016863635 -0.030726347 0.76516825 10063493
0.018095041 -0.030741405 0.76554322 10063493
0.019318184 -0.030741405 0.76554322 9932675
0.020551389 -0.030756462 0.7659182 9932675
0.02178224 -0.0307665 0.76616818 9866882
0.023010133 -0.030771516 0.76629311 9801089
0.024234476 -0.030771516 0.76629311 9735809
0.025462968 -0.030776536 0.7664181 9604223
0.02668751 -0.030776536 0.7664181 9604473
0.02791205 -0.030776536 0.7664181 7433304
0.029127091 -0.0307665 0.76616818 5658167
0.030351231 -0.0307665 0.76616818 5329202
0.031575374 -0.0307665 0.76616818 5523501
0.032799516 -0.0307665 0.76616818 5523501
0.034018107 -0.03076148 0.76604319 6636597
0.035242051 -0.03076148 0.76604319 7360320
0.036465991 -0.03076148 0.76604319 8411211
0.037689935 -0.03076148 0.76604319 8345418
0.038913876 -0.03076148 0.76604319 8344905
0.04013782 -0.03076148 0.76604319 8805456
0.04136176 -0.03076148 0.76604319 8870479
0.042592652 -0.0307665 0.76616818 8804686
0.043816794 -0.0307665 0.76616818 8738893
0.045040935 -0.0307665 0.76616818 8344135
0.046265077 -0.0307665 0.76616818 8211522
0.047489218 -0.0307665 0.76616818 7882557
0.04871336 -0.0307665 0.76616818 8210239
0.049937502 -0.0307665 0.76616818 8012860
0.051161647 -0.0307665 0.76616818 7159861
0.052368697 -0.030756462 0.7659182 7159861
0.053592436 -0.030756462 0.7659182 6767156
0.054789342 -0.030741405 0.76554322 7556672
0.055985052 -0.030726347 0.76516825 7891543
0.057170216 -0.03070627 0.76466829 9010024
0.058391962 -0.03070627 0.76466829 8617830
0.059574731 -0.030686196 0.76416838 8354658
0.060745958 -0.030661101 0.76354343 7957072
0.061905045 -0.030630985 0.76279348 6904384
0.0631238 -0.030630985 0.76279348 7359543
0.064279288 -0.030600872 0.7620436 6898992
0.065421641 -0.030565737 0.76116866 8740694
0.066572145 -0.030535625 0.76041877 10253933
0.067787103 -0.030535625 0.76041877 9733751
0.068934008 -0.03050551 0.75966883 9536372
0.070078522 -0.030475397 0.75891894 9406329
0.071197145 -0.030435244 0.75791901 9406329
0.07240811 -0.030435244 0.75791901 9406329
0.073546238 -0.030405132 0.75716913 9340536
0.074657276 -0.030364977 0.7561692 9472122
0.075765125 -0.030324826 0.75516933 9406329
0.076971695 -0.030324826 0.75516933 9341049
0.078074746 -0.030284673 0.7541694 9406842
0.079174608 -0.030244522 0.75316954 9341049
0.080271281 -0.030204371 0.75216967 9341049
0.081473053 -0.030204371 0.75216967 9406842
0.08256492 -0.030164218 0.75116974 9406842
0.083667539 -0.030129086 0.75029486 9406842
0.084767357 -0.030093951 0.74941993 9406842
0.085964739 -0.030093951 0.74941993 9406842
0.08703129 -0.030048782 0.74829507 9406842
0.088123716 -0.030013647 0.74742013 9276026
0.089198418 -0.029973496 0.74642026 9210233
0.09039101 -0.029973496 0.74642026 9276026
0.091460913 -0.029933343 0.74542034 9276026
0.092543155 -0.029898211 0.74454546 9341819
0.09362261 -0.029863076 0.74367052 9276026
0.094810799 -0.029863076 0.74367052 9341819
0.095886059 -0.029827945 0.74279565 9341819
0.096942194 -0.029787794 0.74179578 9341819
0.097995117 -0.029747641 0.74079585 9407612
0.099178724 -0.029747641 0.74079585 9407612
0.100193 -0.029697452 0.739546 9407612
0.10122041 -0.029652279 0.73842108 9407612
0.10222689 -0.02960209 0.73717123 9407612
0.10340471 -0.02960209 0.73717123 9538428
0.10442293 -0.029556919 0.73604637 9472635
0.10545549 -0.029516766 0.73504645 9602676
0.10643046 -0.029461557 0.73367161 9339504
0.10760269 -0.029461557 0.73367161 9469798
0.10862666 -0.029421406 0.73267174 9535591
0.10960998 -0.029371217 0.73142189 10191202
0.11077861 -0.029371217 0.73142189 10388581
0.11194724 -0.029371217 0.73142189 10651755
0.11311587 -0.029371217 0.73142189 11441271
0.11428449 -0.029371217 0.73142189 11379089
0.11555176 -0.02939631 0.73204678 11576468
-0.042296953 -0.02819295 0.73117191 10658209
-0.041128725 -0.02819295 0.73117191 10592416
-0.0399605 -0.02819295 0.73117191 10592416
-0.038838688 -0.028226685 0.73204678 10460830
-0.037701223 -0.028250782 0.73267174 10720905
-0.036574222 -0.028284516 0.73354661 10391940
-0.035444427 -0.028318252 0.73442155 10783341
-0.034271006 -0.028318252 0.73442155 10322790
-0.033137016 -0.028351987 0.73529643 10583900
-0.032011095 -0.028395362 0.73642135 10518107
-0.030871116 -0.028429095 0.73729622 10649177
-0.029693102 -0.028429095 0.73729622 10846556
-0.028558595 -0.028472468 0.73842108 10847587
-0.027415862 -0.028511025 0.73942101 11242345
-0.026274363 -0.028554397 0.74054587 10915960
-0.025129275 -0.028597772 0.74167079 11047546
-0.023944274 -0.028597772 0.74167079 10851458
-0.022797626 -0.028645964 0.74292064 10851458
-0.021643348 -0.028689338 0.7440455 10720646
-0.020488914 -0.028737532 0.74529541 10720646
-0.019298121 -0.028737532 0.74529541 10655366
-0.018134657 -0.028780906 0.74642026 10655366
-0.016964763 -0.028819459 0.74742013 10524550
-0.015796948 -0.028867655 0.74867004 10458757
-0.014622702 -0.028911026 0.7497949 10261124
-0.013424721 -0.028911026 0.7497949 10195331
-0.012243043 -0.028949579 0.75079477 9998466
-0.011058171 -0.028988136 0.7517947 10064259
-0.0098701045 -0.029026689 0.75279456 10064259
-0.0086673303 -0.029026689 0.75279456 10064259
-0.0074732318 -0.029060425 0.7536695 9998468
-0.006276337 -0.02909416 0.75454438 9998468
-0.0050766468 -0.029127896 0.75541931 9932675
-0.0038741606 -0.02916163 0.75629419 9998468
-0.0026657947 -0.02916163 0.75629419 9998468
-0.0014588741 -0.029190548 0.75704414 10064261
-0.00024955711 -0.029219462 0.75779402 10064261
0.00096231478 -0.029253198 0.75866896 10064261
0.0021744748 -0.029253198 0.75866896 10130054
0.0033899825 -0.029282112 0.75941885 10327433
0.0046078861 -0.029311029 0.76016879 10459019
0.0058281869 -0.029339947 0.76091874 10590605
0.0070508835 -0.029368861 0.76166862 10985111
0.0082678357 -0.029368861 0.76166862 12037799
0.0094941277 -0.029397778 0.76241857 12629934
0.010721059 -0.029421872 0.76304346 10853523
0.011949987 -0.02944597 0.76366842 10129800
0.013170135 -0.02944597 0.76366842 9998214
0.014399705 -0.029465247 0.76416838 9998468
0.015630871 -0.029484523 0.76466829 9998468
0.016863635 -0.029503802 0.76516825 9998468
0.018095041 -0.02951826 0.76554322 9932675
0.019318184 -0.02951826 0.76554322 9932675
0.020551389 -0.029532718 0.7659182 9932675
0.02178224 -0.029542357 0.76616818 9932675
0.023010133 -0.029547174 0.76629311 9866882
0.024234476 -0.029547174 0.76629311 9735809
0.025462968 -0.029551994 0.7664181 9604223
0.02668751 -0.029551994 0.7664181 8880748
0.02791205 -0.029551994 0.7664181 6314821
0.029127091 -0.029542357 0.76616818 5461299
0.030351231 -0.029542357 0.76616818 5066541
0.031575374 -0.029542357 0.76616818 4933672
0.032799516 -0.029542357 0.76616818 4933672
0.034018107 -0.029537538 0.76604319 5588524
0.035242051 -0.029537538 0.76604319 5785903
0.036465991 -0.029537538 0.76604319 6899515
0.037689935 -0.029537538 0.76604319 7294273
0.038913876 -0.029537538 0.76604319 7818820
0.04013782 -0.029537538 0.76604319 8345164
0.04136176 -0.029537538 0.76604319 8476491
0.042592652 -0.029542357 0.76616818 8344905
0.043816794 -0.029542357 0.76616818 8213319
0.045040935 -0.029542357 0.76616818 7950147
0.046265077 -0.029542357 0.76616818 8080449
0.047489218 -0.029542357 0.76616818 7817277
0.04871336 -0.029542357 0.76616818 8013371
0.049937502 -0.029542357 0.76616818 8210750
0.051161647 -0.029542357 0.76616818 7554617
0.052368697 -0.029532718 0.7659182 8080961
0.053592436 -0.029532718 0.7659182 7226424
0.054789342 -0.02951826 0.76554322 7358010
0.055985052 -0.029503802 0.76516825 7556931
0.057179563 -0.029489342 0.76479328 8938584
0.058401506 -0.029489342 0.76479328 9207655
0.059574731 -0.029465247 0.76416838 9010276
0.060745958 -0.02944115 0.76354343 8351315
0.061905045 -0.029412234 0.76279348 7298627
0.0631238 -0.029412234 0.76279348 7688510
0.064279288 -0.029383318 0.7620436 7227959
0.065421641 -0.029349582 0.76116866 10058353
0.066572145 -0.029320668 0.76041877 10124146
0.067787103 -0.029320668 0.76041877 9471092
0.068934008 -0.029291751 0.75966883 9602678
0.070078522 -0.029262837 0.75891894 9406583
0.071197145 -0.02922428 0.75791901 9406583
0.07240811 -0.02922428 0.75791901 9406583
0.073546238 -0.029195366 0.75716913 9406583
0.074657276 -0.02915681 0.7561692 9406329
0.075765125 -0.029118257 0.75516933 9406329
0.076971695 -0.029118257 0.75516933 9341049
0.078074746 -0.029079702 0.7541694 9341049
0.079174608 -0.029041149 0.75316954 9275256
0.080271281 -0.029002594 0.75216967 9341049
0.081473053 -0.029002594 0.75216967 9341049
0.08256492 -0.028964039 0.75116974 9341049
0.083667539 -0.028930305 0.75029486 9341049
0.084767357 -0.028896568 0.74941993 9275256
0.085964739 -0.028896568 0.74941993 9341049
0.08703129 -0.028853195 0.74829507 9341049
0.088123716 -0.028819459 0.74742013 9341049
0.089198418 -0.028780906 0.74642026 9341049
0.09039101 -0.028780906 0.74642026 9210233
0.091460913 -0.028742349 0.74542034 9210233
0.092543155 -0.028708616 0.74454546 9276026
0.09362261 -0.02867488 0.74367052 9276026
0.094810799 -0.02867488 0.74367052 9341819
0.095886059 -0.028641146 0.74279565 9341819
0.096942194 -0.028602593 0.74179578 9341819
0.097995117 -0.028564036 0.74079585 9341819
0.099178724 -0.028564036 0.74079585 9407612
0.100193 -0.028515844 0.739546 9407612
0.10122041 -0.028472468 0.73842108 9407612
0.10222689 -0.028424276 0.73717123 9407612
0.10340471 -0.028424276 0.73717123 9407612
0.10442293 -0.028380902 0.73604637 9407612
0.10545549 -0.028342348 0.73504645 9472376
0.10643046 -0.028289335 0.73367161 9406583
0.10760269 -0.028289335 0.73367161 9536622
0.10862666 -0.028250782 0.73267174 9339243
0.10960998 -0.02820259 0.73142189 10125411
0.11077861 -0.02820259 0.73142189 10191204
0.11194724 -0.02820259 0.73142189 10454115
0.11311587 -0.02820259 0.73142189 10585701
0.11428449 -0.02820259 0.73142189 10916478
0.11555176 -0.028226685 0.73204678 11903373
-0.042210191 -0.026969289 0.72967207 10592673
-0.041044362 -0.026969289 0.72967207 10526880
-0.039878529 -0.026969289 0.72967207 10591384
-0.038765747 -0.027006246 0.73067194 10196626
-0.037656199 -0.027047822 0.7317968 10588286
-0.036530603 -0.02708016 0.73267174 10325114
-0.035359979 -0.02708016 0.73267174 10586214
-0.034230176 -0.027112497 0.73354661 10323042
-0.03310322 -0.027149454 0.73454654 10584154
-0.031978499 -0.02719103 0.7356714 10518361
-0.030839717 -0.027223369 0.73654634 10518361
-0.029662903 -0.027223369 0.73654634 10715740
-0.028529592 -0.027264945 0.7376712 11046513
-0.027392689 -0.027306519 0.73879606 11243892
-0.026252192 -0.027348097 0.73992097 10785404
-0.025112337 -0.027394293 0.74117082 10851197
-0.023928132 -0.027394293 0.74117082 10654851
-0.022778448 -0.027435869 0.74229568 10720644
-0.02162517 -0.027477447 0.7434206 10589573
-0.02047517 -0.027528262 0.74479544 10589573
-0.019285174 -0.027528262 0.74479544 10458757
-0.018122511 -0.027569838 0.7459203 10458757
-0.016956253 -0.027611416 0.74704522 10392964
-0.0157864 -0.027652992 0.74817008 10392964
-0.014612951 -0.027694568 0.74929494 10261124
-0.013415769 -0.027694568 0.74929494 10195331
-0.012236929 -0.027736146 0.75041986 9998466
-0.011052656 -0.027773101 0.75141972 10064259
-0.009865188 -0.027810058 0.75241959 9998466
-0.0086630136 -0.027810058 0.75241959 9998466
-0.007470753 -0.027847016 0.75341952 9933188
-0.006273218 -0.027874732 0.7541694 9933188
-0.0050741266 -0.02790707 0.75504434 9933188
-0.00387288 -0.027944027 0.75604421 9933188
-0.0026649137 -0.027944027 0.75604421 9933188
-0.0014583924 -0.027971745 0.75679415 9933188
-0.00024947478 -0.027999461 0.75754404 9933188
0.00096199772 -0.0280318 0.75841898 9998981
0.0021737583 -0.0280318 0.75841898 10064774
0.0033888668 -0.028059518 0.75916892 10196360
0.0046063708 -0.028087234 0.75991881 10393226
0.0058262721 -0.028114954 0.76066875 10393226
0.0070485692 -0.02814267 0.76141864 10458767
0.0082651228 -0.02814267 0.76141864 12037799
0.0094879018 -0.028161149 0.7619186 12301484
0.010715791 -0.028188867 0.76266855 12367277
0.011942164 -0.028207345 0.76316845 9932675
0.013161512 -0.028207345 0.76316845 10064261
0.01439264 -0.028230444 0.76379341 10064261
0.015625762 -0.028253542 0.76441836 9998468
0.01685537 -0.028267398 0.76479328 9932675
0.018086178 -0.028281258 0.76516825 9932675
0.019308722 -0.028281258 0.76516825 9932675
0.020541327 -0.028295118 0.76554322 9932675
0.021775132 -0.028308976 0.7659182 9932675
0.023002628 -0.028313598 0.76604319 9866882
0.024226572 -0.028313598 0.76604319 9866882
0.025454665 -0.028318217 0.76616818 9669503
0.026678808 -0.028318217 0.76616818 9407094
0.027902948 -0.028318217 0.76616818 7038546
0.029127091 -0.028318217 0.76616818 5198129
0.03034628 -0.028313598 0.76604319 5000750
0.031570222 -0.028313598 0.76604319 4869160
0.032794166 -0.028313598 0.76604319 4934953
0.034012556 -0.028308976 0.7659182 5000235
0.035236299 -0.028308976 0.7659182 5000235
0.036460042 -0.028308976 0.7659182 5852214
0.037683785 -0.028308976 0.7659182 6115386
0.038907528 -0.028308976 0.7659182 7098177
0.040131271 -0.028308976 0.7659182 7558728
0.041355014 -0.028308976 0.7659182 8017736
0.042585701 -0.028313598 0.76604319 7886150
0.043809645 -0.028313598 0.76604319 7622465
0.045033589 -0.028313598 0.76604319 7359293
0.046265077 -0.028318217 0.76616818 7950147
0.047489218 -0.028318217 0.76616818 7818561
0.04871336 -0.028318217 0.76616818 7950145
0.049937502 -0.028318217 0.76616818 10121314
0.051153298 -0.028313598 0.76604319 9924448
0.052360151 -0.028304357 0.7657932 8148037
0.053583689 -0.028304357 0.7657932 7685691
0.054789342 -0.028295118 0.76554322 7488312
0.055985052 -0.028281258 0.76516825 7357240
0.057179563 -0.028267398 0.76479328 7159861
0.058401506 -0.028267398 0.76479328 8811614
0.059574731 -0.028244304 0.76416838 9206372
0.060745958 -0.028221203 0.76354343 8744791
0.061905045 -0.028193485 0.76279348 6639415
0.0631238 -0.028193485 0.76279348 7621695
0.064279288 -0.028165769 0.7620436 7424316
0.065421641 -0.02813343 0.76116866 9401965
0.066572145 -0.028105713 0.76041877 9862516
0.067787103 -0.028105713 0.76041877 9340536
0.068922669 -0.028073376 0.75954384 9340536
0.070066974 -0.02804566 0.75879395 9406329
0.07118541 -0.028008701 0.75779402 9472122
0.072396167 -0.028008701 0.75779402 9406842
0.073521957 -0.027976364 0.75691915 9341049
0.074632592 -0.027939407 0.75591922 9341049
0.075752586 -0.02790707 0.75504434 9341049
0.076958954 -0.02790707 0.75504434 9341049
0.07804887 -0.027865496 0.75391948 9341049
0.07914833 -0.027828537 0.75291955 9275256
0.080244601 -0.02779158 0.75191969 9275256
0.08144597 -0.02779158 0.75191969 9144440
0.082537442 -0.027754622 0.75091976 9210233
0.083625726 -0.027717667 0.74991989 9341049
0.08472494 -0.027685327 0.74904495 9341049
0.085921727 -0.027685327 0.74904495 9275256
0.086987674 -0.027643753 0.7479201 9275256
0.088064775 -0.027606796 0.74692023 9275256
0.089138672 -0.027569838 0.7459203 9341049
0.090330467 -0.027569838 0.7459203 9210233
0.09139958 -0.027532883 0.74492043 9210233
0.092481017 -0.027500544 0.7440455 9210233
0.093559675 -0.027468208 0.74317062 9276026
0.094747066 -0.027468208 0.74317062 9276026
0.095805384 -0.02743125 0.74217069 9341819
0.096860521 -0.027394293 0.74117082 9341819
0.09789592 -0.027352719 0.74004596 9341819
0.099078327 -0.027352719 0.74004596 9341819
0.10007446 -0.0273019 0.73867106 9341819
0.10106622 -0.027251085 0.73729622 9407612
0.10210557 -0.027214129 0.73629636 9407612
0.10328199 -0.027214129 0.73629636 9538428
0.10428108 -0.027167931 0.73504645 9604221
0.1052941 -0.027126355 0.73392159 9669501
0.10643046 -0.027117116 0.73367161 9603708
0.10743771 -0.02707554 0.73254675 9669239
0.10844136 -0.027033964 0.73142189 9340274
0.10946014 -0.026997007 0.73042196 9601382
0.11062717 -0.026997007 0.73042196 9601382
0.1117942 -0.026997007 0.73042196 10190689
0.11298056 -0.027001627 0.73054695 10519654
0.11416732 -0.027006246 0.73067194 10585708
0.11539394 -0.027020106 0.73104692 11046259
-0.043197699 -0.025697378 0.72667235 10592675
-0.042036664 -0.025697378 0.72667235 10592675
-0.040938903 -0.025737159 0.72779727 10526882
-0.039776064 -0.025737159 0.72779727 10458253
-0.038679544 -0.025781358 0.72904712 10260874
-0.037591886 -0.025834396 0.73054695 10652786
-0.036480747 -0.025874175 0.73167181 10389614
-0.035311718 -0.025874175 0.73167181 10584927
-0.034189351 -0.025909536 0.73267174 10387548
-0.033069424 -0.025949314 0.7337966 10518874
-0.031940468 -0.025984675 0.73479652 10453081
-0.030813551 -0.026024453 0.73592138 10781794
-0.029637733 -0.026024453 0.73592138 11373931
-0.028505422 -0.026064232 0.73704624 10785144
-0.027360251 -0.026095172 0.73792118 10916730
-0.026225584 -0.026139371 0.73917103 10589056
-0.025044579 -0.026139371 0.73917103 10589056
-0.023903921 -0.02618357 0.74042088 10589573
-0.022755437 -0.02622335 0.7415458 10589573
-0.021606991 -0.026267549 0.74279565 10392964
-0.020457989 -0.026316168 0.74417049 10392964
-0.019268993 -0.026316168 0.74417049 10261124
-0.018110363 -0.026360366 0.74542034 10261124
-0.016942067 -0.026395727 0.74642026 10261124
-0.01577585 -0.026439926 0.74767011 10261124
-0.014603202 -0.026479706 0.74879503 10195331
-0.013406819 -0.026479706 0.74879503 10129538
-0.012228776 -0.026519485 0.74991989 9998466
-0.011045302 -0.026554843 0.75091976 9998466
-0.0098602725 -0.026594624 0.75204468 9998466
-0.0086586969 -0.026594624 0.75204468 9998466
-0.0074670347 -0.026629981 0.75304455 9932675
-0.0062700994 -0.026656501 0.75379449 9932675
-0.005072447 -0.02669186 0.75479436 9932675
-0.0038709596 -0.0267228 0.7556693 9998468
-0.0026635921 -0.0267228 0.7556693 9998468
-0.0014579106 -0.026753739 0.75654417 9998468
-0.00024939247 -0.026780259 0.75729412 9998468
0.00096168061 -0.026811197 0.758169 9998468
0.0021730419 -0.026811197 0.758169 10130054
0.0033877508 -0.026837718 0.75891894 10261640
0.0046048556 -0.026864236 0.75966883 10327433
0.0058243573 -0.026890757 0.76041877 10327433
0.0070462553 -0.026917275 0.76116866 10524558
0.0082624089 -0.026917275 0.76116866 11577246
0.0094847893 -0.026934955 0.76166862 12169896
0.010710523 -0.026957056 0.76229358 13090998
0.011938252 -0.026979154 0.76291847 9932675
0.013157201 -0.026979154 0.76291847 10064261
0.014385574 -0.026996834 0.76341844 9998468
0.015618096 -0.027018934 0.76404339 9932675
0.016847108 -0.027032195 0.76441836 9998468
0.018068453 -0.027032195 0.76441836 9998468
0.019302415 -0.027049873 0.76491827 9998468
0.02053462 -0.027063133 0.76529324 9998468
0.021764472 -0.027071973 0.76554322 9932675
0.022991369 -0.027076393 0.76566821 9866882
0.024214713 -0.027076393 0.76566821 9866882
0.025446359 -0.027085233 0.7659182 9801089
0.026670104 -0.027085233 0.7659182 9012336
0.027893843 -0.027085233 0.7659182 8091234
0.029117588 -0.027085233 0.7659182 7236177
0.030341329 -0.027085233 0.7659182 5393973
0.03156507 -0.027085233 0.7659182 5921850
0.032788817 -0.027085233 0.7659182 7764054
0.034012556 -0.027085233 0.7659182 5724473
0.035236299 -0.027085233 0.7659182 4934957
0.036460042 -0.027085233 0.7659182 5526581
0.037683785 -0.027085233 0.7659182 5592374
0.038907528 -0.027085233 0.7659182 6246972
0.040131271 -0.027085233 0.7659182 7562832
0.041355014 -0.027085233 0.7659182 7954510
0.042578753 -0.027085233 0.7659182 7099201
0.043809645 -0.027089654 0.76604319 7294527
0.045033589 -0.027089654 0.76604319 7097148
0.046257529 -0.027089654 0.76604319 8805202
0.047481474 -0.027089654 0.76604319 8936788
0.048705414 -0.027089654 0.76604319 9794659
0.049929358 -0.027089654 0.76604319 9794659
0.051144954 -0.027085233 0.7659182 9728352
0.052360151 -0.027080813 0.7657932 8083527
0.053583689 -0.027080813 0.7657932 8013373
0.054780398 -0.027067553 0.76541823 7552822
0.055985052 -0.027058713 0.76516825 6831666
0.057170216 -0.027041033 0.76466829 9660765
0.058391962 -0.027041033 0.76466829 9403237
0.059574731 -0.027023355 0.76416838 9403237
0.060745958 -0.027001254 0.76354343 9138782
0.061905045 -0.026974734 0.76279348 6046511
0.0631238 -0.026974734 0.76279348 7226170
0.064279288 -0.026948215 0.7620436 6962998
0.065421641 -0.026917275 0.76116866 9206124
0.066572145 -0.026890757 0.76041877 9666675
0.067787103 -0.026890757 0.76041877 9406842
0.068911329 -0.026855396 0.75941885 9341049
0.070055433 -0.026828878 0.75866896 9341049
0.071161926 -0.026789097 0.75754404 9406842
0.072372288 -0.026789097 0.75754404 9406842
0.073497675 -0.026758159 0.75666916 9406842
0.074607924 -0.0267228 0.7556693 9341049
0.075714961 -0.02668744 0.75466937 9341049
0.076920733 -0.02668744 0.75466937 9341049
0.078010052 -0.026647661 0.75354451 9341049
0.079108916 -0.0266123 0.75254458 9210233
0.080204584 -0.026576944 0.75154471 9144440
0.081405357 -0.026576944 0.75154471 9144440
0.082496233 -0.026541585 0.75054485 9210233
0.083597846 -0.026510645 0.74966991 9275256
0.084682539 -0.026475286 0.74867004 9341049
0.085878722 -0.026475286 0.74867004 9341049
0.086944066 -0.026435506 0.74754512 9275256
0.0880353 -0.026404567 0.74667025 9275256
0.089093864 -0.026364787 0.74554533 9275256
0.090285055 -0.026364787 0.74554533 9275256
0.091353565 -0.026329428 0.74454546 9275256
0.092434406 -0.026298488 0.74367052 9144440
0.093496732 -0.026263129 0.74267066 9276026
0.094683327 -0.026263129 0.74267066 9210233
0.095740855 -0.02622777 0.74167079 9341819
0.096778847 -0.02618799 0.74054587 9276026
0.097813249 -0.026148211 0.73942101 9341819
0.098994657 -0.026148211 0.73942101 9276026
0.099972866 -0.026095172 0.73792118 9276026
0.10094629 -0.026042134 0.73642135 9341819
0.10196691 -0.026002353 0.73529643 9407612
0.10314173 -0.026002353 0.73529643 9407612
0.10412149 -0.025953734 0.73392159 9407612
0.10509686 -0.025905116 0.73254675 9604221
0.10626728 -0.025905116 0.73254675 9538428
0.10719941 -0.025847657 0.73092192 9538682
0.1081634 -0.025799038 0.72954708 9407096
0.10917918 -0.025763677 0.72854716 9471340
0.11034322 -0.025763677 0.72854716 9273961
0.11146899 -0.025754837 0.72829717 9928550
0.11251666 -0.025728319 0.72754729 10191722
0.11367909 -0.025728319 0.72754729 10585449
0.11486126 -0.025732739 0.72767228 10585449
0.11602388 -0.025732739 0.72767228 10916738
-0.043056533 -0.02445616 0.72429764 10658211
-0.04189929 -0.02445616 0.72429764 10658209
-0.040742047 -0.02445616 0.72429764 10592416
-0.039646279 -0.024494141 0.7254225 10391681
-0.038599968 -0.024565885 0.72754729 10325888
-0.037514709 -0.024616528 0.72904712 10585960
-0.036418427 -0.024662951 0.73042196 10454374
-0.035251398 -0.024662951 0.73042196 10518874
-0.034142692 -0.024705151 0.73167181 10453081
-0.033029996 -0.024747355 0.73292172 10518361
-0.031907868 -0.024785336 0.73404658 10584154
-0.03078215 -0.024823317 0.73517144 10784111
-0.029607531 -0.024823317 0.73517144 10915697
-0.028476421 -0.0248613 0.73629636 10720124
-0.02733708 -0.024895063 0.73729622 10720124
-0.026203411 -0.024937263 0.73854607 10392190
-0.025023405 -0.024937263 0.73854607 10523776
-0.023883747 -0.024979467 0.73979598 10392964
-0.022740094 -0.025021669 0.74104583 10458757
-0.021592448 -0.02506387 0.74229568 10392964
-0.020447681 -0.025114512 0.74379551 10195585
-0.019259283 -0.025114512 0.74379551 10261124
-0.018098218 -0.025152495 0.74492043 10261124
-0.016933557 -0.025190476 0.74604529 10261124
-0.015767938 -0.025232678 0.74729514 10261124
-0.014595889 -0.025270661 0.74842006 10064259
-0.013400105 -0.025270661 0.74842006 9998466
-0.012220623 -0.025304424 0.74941993 9932675
-0.011039788 -0.025342407 0.75054485 9998468
-0.0098553561 -0.025380388 0.7516697 9998468
-0.0086543793 -0.025380388 0.7516697 9932675
-0.0074633164 -0.025414148 0.75266957 9998468
-0.0062669804 -0.025439471 0.75341952 9932675
-0.0050699268 -0.025473231 0.75441939 9932675
-0.0038696791 -0.025506994 0.75541931 9998468
-0.0026627111 -0.025506994 0.75541931 9998468
-0.001457188 -0.025532315 0.7561692 9998468
-0.00024931013 -0.025561858 0.75704414 9998468
0.00096136355 -0.025591398 0.75791901 9998468
0.0021723253 -0.025591398 0.75791901 10130054
0.0033866351 -0.02561672 0.75866896 10130054
0.0046033403 -0.025642039 0.75941885 10261640
0.0058224429 -0.025667362 0.76016879 10261640
0.0070427847 -0.025688464 0.76079375 10459532
0.008258339 -0.025688464 0.76079375 11446427
0.0094816759 -0.025709564 0.76141864 12169896
0.010705254 -0.025726445 0.7619186 12564654
0.011932385 -0.025747547 0.76254356 10656398
0.013150736 -0.025747547 0.76254356 10064261
0.014380863 -0.025768647 0.76316845 9998468
0.015610431 -0.025785528 0.76366842 9998468
0.016841598 -0.025802409 0.76416838 9933188
0.018062545 -0.025802409 0.76416838 9933188
0.019292952 -0.025815068 0.76454329 9933188
0.02052456 -0.02582773 0.76491827 9933188
0.021757364 -0.02584039 0.76529324 9867395
0.022983862 -0.025844611 0.76541823 9867395
0.024206808 -0.025844611 0.76541823 9867395
0.025438054 -0.025853053 0.76566821 9735809
0.026661398 -0.025853053 0.76566821 8222309
0.027889293 -0.025857272 0.7657932 7498586
0.029112836 -0.025857272 0.7657932 7368533
0.030336376 -0.025857272 0.7657932 8092256
0.031559922 -0.025857272 0.7657932 8948076
0.032783464 -0.025857272 0.7657932 9342834
0.034001455 -0.025853053 0.76566821 5856829
0.035224799 -0.025853053 0.76566821 4738348
0.03644814 -0.025853053 0.76566821 5462071
0.037677635 -0.025857272 0.7657932 5462071
0.03890118 -0.025857272 0.7657932 5919802
0.040124722 -0.025857272 0.7657932 9077866
0.041348264 -0.025857272 0.7657932 9732718
0.042578753 -0.025861492 0.7659182 7561549
0.043802496 -0.025861492 0.7659182 7294527
0.045026239 -0.025861492 0.7659182 7294527
0.046249982 -0.025861492 0.7659182 8345164
0.047473725 -0.025861492 0.7659182 9463645
0.048697468 -0.025861492 0.7659182 9663843
0.049921211 -0.025861492 0.7659182 9729636
0.051136605 -0.025857272 0.7657932 9464667
0.052351605 -0.025853053 0.76566821 7819842
0.053574942 -0.025853053 0.76566821 7947067
0.054780398 -0.025844611 0.76541823 7486516
0.055985052 -0.02583617 0.76516825 6962482
0.057170216 -0.025819289 0.76466829 10383718
0.058391962 -0.025819289 0.76466829 9403239
0.059574731 -0.025802409 0.76416838 9534825
0.060745958 -0.025781307 0.76354343 9797743
0.061905045 -0.025755987 0.76279348 6771265
0.0631238 -0.025755987 0.76279348 5979185
0.064279288 -0.025730666 0.7620436 9466214
0.065421641 -0.025701122 0.76116866 9733751
0.066572145 -0.025675803 0.76041877 9667958
0.067787103 -0.025675803 0.76041877 9406842
0.068911329 -0.025642039 0.75941885 9406842
0.070043892 -0.0256125 0.75854397 9406842
0.071150191 -0.025574518 0.75741911 9406842
0.072360352 -0.025574518 0.75741911 9406842
0.073473394 -0.025540756 0.75641918 9406842
0.07458324 -0.025506994 0.75541931 9406844
0.075689882 -0.025473231 0.75441939 9341051
0.076895252 -0.025473231 0.75441939 9341049
0.077984177 -0.02543525 0.75329453 9341049
0.079069503 -0.025397269 0.75216967 9210233
0.080164567 -0.025363507 0.75116974 9210233
0.081364743 -0.025363507 0.75116974 9144440
0.082455017 -0.025329744 0.75016987 9144440
0.083542094 -0.025295982 0.74916995 9275256
0.084625982 -0.025262222 0.74817008 9341049
0.085821368 -0.025262222 0.74817008 9341049
0.086900458 -0.025228459 0.74717015 9275256
0.087976359 -0.025194697 0.74617028 9143670
0.089049064 -0.025160937 0.74517041 9275256
0.090239652 -0.025160937 0.74517041 9275256
0.091292225 -0.025122954 0.7440455 9275256
0.092372276 -0.025093412 0.74317062 9275256
0.093433797 -0.02505965 0.74217069 9341049
0.094619587 -0.02505965 0.74217069 9341049
0.095676318 -0.025025889 0.74117082 9406842
0.096697181 -0.024983687 0.73992097 9276026
0.097714044 -0.024941484 0.73867106 9276026
0.098894253 -0.024941484 0.73867106 9276026
0.09987127 -0.024890842 0.73717123 9276026
0.10080922 -0.024831759 0.73542142 9276026
0.10196691 -0.024827538 0.73529643 9341819
0.10298394 -0.024789557 0.73417157 9341819
0.10392644 -0.024734695 0.73254675 9407612
0.10488168 -0.024684051 0.73104692 9604221
0.10604971 -0.024684051 0.73104692 9538428
0.10697944 -0.024629189 0.72942209 9538682
0.10788544 -0.024570106 0.72767228 9538682
0.10889823 -0.024536343 0.72667235 9472372
0.11005927 -0.024536343 0.72667235 9143407
0.11118204 -0.024527902 0.72642237 9732456
0.11224604 -0.024506804 0.72579747 9798249
0.11328851 -0.024481481 0.72504753 10322536
0.11444695 -0.024481481 0.72504753 10519915
0.11558545 -0.02447726 0.72492254 10783857
0.11658267 -0.0244435 0.72392267 11244408
0.11773931 -0.0244435 0.72392267 11445398
-0.043056533 -0.023298915 0.72429764 10658211
-0.04189929 -0.023298915 0.72429764 10723485
-0.040742047 -0.023298915 0.72429764 10394520
-0.039646279 -0.023335099 0.7254225 10719099
-0.038599968 -0.023403449 0.72754729 10455927
-0.037514709 -0.023451695 0.72904712 10650722
-0.036418427 -0.02349592 0.73042196 10519136
-0.035251398 -0.02349592 0.73042196 10518361
-0.034142692 -0.023536125 0.73167181 10452568
-0.033029996 -0.023576332 0.73292172 10518622
-0.031907868 -0.023612516 0.73404658 10913380
-0.03078215 -0.0236487 0.73517144 10588279
-0.029607531 -0.0236487 0.73517144 10654072
-0.028476421 -0.023684885 0.73629636 10524030
-0.02733708 -0.02371705 0.73729622 10524030
-0.026203411 -0.023757253 0.73854607 10261376
-0.025023405 -0.023757253 0.73854607 10392962
-0.023883747 -0.02379746 0.73979598 10261892
-0.022740094 -0.023837665 0.74104583 10327685
-0.021592448 -0.02387787 0.74229568 10130306
-0.020447681 -0.023926115 0.74379551 10064513
-0.019259283 -0.023926115 0.74379551 10130052
-0.018098218 -0.023962302 0.74492043 10064259
-0.016933557 -0.023998486 0.74604529 10064259
-0.015767938 -0.024038691 0.74729514 10064259
-0.014595889 -0.024074877 0.74842006 9998466
-0.013400105 -0.024074877 0.74842006 9932673
-0.012220623 -0.024107039 0.74941993 9866882
-0.011039788 -0.024143225 0.75054485 9998468
-0.0098553561 -0.02417941 0.7516697 9867395
-0.0086543793 -0.02417941 0.7516697 9867395
-0.0074633164 -0.024211572 0.75266957 9998468
-0.0062669804 -0.024235697 0.75341952 9932675
-0.0050699268 -0.02426786 0.75441939 9932675
-0.0038696791 -0.024300026 0.75541931 9998468
-0.0026627111 -0.024300026 0.75541931 9998468
-0.0014567063 -0.024316106 0.75591922 9998468
-0.00024918668 -0.024340229 0.75666916 9998468
0.00096104643 -0.024372393 0.75766903 9998468
0.0021716089 -0.024372393 0.75766903 10130054
0.0033855191 -0.024396516 0.75841898 10130054
0.0046018255 -0.024420641 0.75916892 10130054
0.0058205281 -0.024444763 0.75991881 10261640
0.0070416275 -0.024468888 0.76066875 10459019
0.0082569821 -0.024468888 0.76066875 10985363
0.0094785634 -0.024484968 0.76116866 12169896
0.010701742 -0.02450105 0.76166862 12301482
0.011928474 -0.024521153 0.76229358 10919316
0.013146425 -0.024521153 0.76229358 10129800
0.014373797 -0.024537234 0.76279348 10064261
0.015605322 -0.024557337 0.76341844 10064261
0.016833333 -0.0245694 0.76379341 9998981
0.018053681 -0.0245694 0.76379341 9998981
0.019286646 -0.024585482 0.76429337 9933188
0.02051785 -0.024597542 0.76466829 9933188
0.021750258 -0.024609605 0.76504326 9867395
0.022980109 -0.024617646 0.76529324 9933188
0.024202853 -0.024617646 0.76529324 9933188
0.02542975 -0.024621667 0.76541823 9801602
0.026657047 -0.024625687 0.76554322 9406844
0.02788474 -0.024629708 0.76566821 9406844
0.029108085 -0.024629708 0.76566821 9341819
0.030331425 -0.024629708 0.76566821 9407612
0.03155477 -0.024629708 0.76566821 9276278
0.032778114 -0.024629708 0.76566821 9407864
0.034001455 -0.024629708 0.76566821 7500632
0.035224799 -0.024629708 0.76566821 5066291
0.03644814 -0.024629708 0.76566821 5462071
0.037671484 -0.024629708 0.76566821 5330485
0.038894828 -0.024629708 0.76566821 6842189
0.040118173 -0.024629708 0.76566821 9342323
0.041341513 -0.024629708 0.76566821 10128505
0.042571805 -0.024633728 0.7657932 9207403
0.043795347 -0.024633728 0.7657932 7425345
0.045018893 -0.024633728 0.7657932 7688517
0.046242435 -0.024633728 0.7657932 8739409
0.047465976 -0.024633728 0.7657932 9594718
0.048689518 -0.024633728 0.7657932 9728352
0.049913064 -0.024633728 0.7657932 9333594
0.051128261 -0.024629708 0.76566821 9134419
0.052334514 -0.024621667 0.76541823 7950145
0.053557452 -0.024621667 0.76541823 8012088
0.054762505 -0.024613624 0.76516825 7551537
0.055966761 -0.024605583 0.76491827 6503214
0.057160873 -0.024593521 0.76454329 9069141
0.058382418 -0.024593521 0.76454329 9469292
0.059555244 -0.024573421 0.7639184 9600878
0.060736015 -0.024557337 0.76341844 9667186
0.061894909 -0.024533216 0.76266855 9009256
0.063113458 -0.024533216 0.76266855 7758162
0.064268745 -0.024509091 0.7619186 9402987
0.065421641 -0.024484968 0.76116866 9603448
0.066561207 -0.024456825 0.76029378 9669241
0.067775965 -0.024456825 0.76029378 9406842
0.068911329 -0.024428681 0.75941885 9406842
0.070032351 -0.024396516 0.75841898 9406842
0.071126707 -0.024356313 0.75716913 9406842
0.072336473 -0.024356313 0.75716913 9406844
0.073461249 -0.024328168 0.75629419 9406844
0.074558556 -0.024291985 0.75516933 9276028
0.075664803 -0.024259819 0.7541694 9210235
0.076869771 -0.024259819 0.7541694 9144442
0.077971235 -0.024227655 0.75316954 9210235
0.079043224 -0.024187451 0.75191969 9210233
0.080137886 -0.024155285 0.75091976 9210233
0.081337661 -0.024155285 0.75091976 9144440
0.082427539 -0.024123123 0.74991989 9144440
0.083514221 -0.024090957 0.74891996 9341049
0.084583573 -0.024054773 0.7477951 9341049
0.085778356 -0.024054773 0.7477951 9341049
0.086842313 -0.024018589 0.74667025 9275256
0.087932147 -0.023990445 0.74579531 9275256
0.088989317 -0.023954259 0.74467045 9275256
0.090179108 -0.023954259 0.74467045 9275256
0.091246217 -0.023922095 0.74367052 9143670
0.092310131 -0.023889931 0.74267066 9275256
0.093370862 -0.023857769 0.74167079 9341049
0.094555847 -0.023857769 0.74167079 9275256
0.095595643 -0.023821583 0.74054587 9341049
0.096615508 -0.023781378 0.73929602 9276026
0.09763138 -0.023741173 0.73804617 9210233
0.098810591 -0.023741173 0.73804617 9210233
0.099769674 -0.023688907 0.73642135 9276026
0.1006893 -0.023628598 0.73454654 9210233
0.10186291 -0.023628598 0.73454654 9276026
0.10279109 -0.023572311 0.73279673 9341819
0.10373139 -0.023520045 0.73117191 9341819
0.10463064 -0.023459736 0.7292971 9341819
0.10579587 -0.023459736 0.7292971 9407612
0.10675947 -0.023415511 0.72792226 9538428
0.10788544 -0.02340747 0.72767228 9538428
0.10889823 -0.023375304 0.72667235 9603960
0.11005927 -0.023375304 0.72667235 9209202
0.11118204 -0.023367263 0.72642237 9667436
0.11224604 -0.023347162 0.72579747 9535850
0.11328851 -0.023323039 0.72504753 9928548
0.11444695 -0.023323039 0.72504753 10191720
0.11558545 -0.023319017 0.72492254 10520167
0.11658267 -0.023286853 0.72392267 10651753
0.11773931 -0.023286853 0.72392267 10917253
-0.042885642 -0.022053793 0.72142291 10921381
-0.041732993 -0.022053793 0.72142291 10919831
-0.04058034 -0.022053793 0.72142291 10393487
-0.039577972 -0.022137852 0.72417265 10652784
-0.038493872 -0.022179881 0.72554749 10323819
-0.037424669 -0.022233373 0.72729731 10519134
-0.03635611 -0.022290684 0.72917211 10387548
-0.035191078 -0.022290684 0.72917211 10452568
-0.034096036 -0.022336533 0.73067194 10518361
-0.032984935 -0.022374742 0.73192179 10389353
-0.03186984 -0.022412952 0.7331717 10784111
-0.030750751 -0.022451159 0.73442155 10457724
-0.029577332 -0.022451159 0.73442155 10589310
-0.028442582 -0.022481725 0.73542142 10392962
-0.02731391 -0.022519935 0.73667133 10261376
-0.02618124 -0.022558141 0.73792118 10130306
-0.025002232 -0.022558141 0.73792118 10261892
-0.023867605 -0.02260017 0.73929602 10130306
-0.022724751 -0.022638379 0.74054587 10261892
-0.021581542 -0.022680407 0.74192071 10064513
-0.020433938 -0.022722438 0.74329561 10064513
-0.01924634 -0.022722438 0.74329561 10064513
-0.018086072 -0.022756824 0.74442047 10064513
-0.016925046 -0.022795033 0.74567032 10064259
-0.015760027 -0.022833241 0.74692023 10064259
-0.014586139 -0.022863807 0.7479201 9998466
-0.013391153 -0.022863807 0.7479201 9932673
-0.012216547 -0.022902016 0.74916995 9866882
-0.011034272 -0.022932583 0.75016987 9932675
-0.0098504396 -0.02296697 0.75129473 9932675
-0.0086500626 -0.02296697 0.75129473 9932675
-0.0074595991 -0.022997538 0.75229466 9998468
-0.0062649013 -0.023024281 0.75316954 9932675
-0.0050682472 -0.023054847 0.7541694 9998468
-0.0038677582 -0.023081595 0.75504434 9998468
-0.0026613893 -0.023081595 0.75504434 9998468
-0.0014567063 -0.023108339 0.75591922 9998468
-0.00024918668 -0.023131264 0.75666916 9998468
0.00096104643 -0.02316183 0.75766903 9998468
0.0021716089 -0.02316183 0.75766903 10130054
0.0033855191 -0.023184758 0.75841898 10130054
0.0046018255 -0.023207683 0.75916892 10130054
0.0058205281 -0.023230607 0.75991881 10261640
0.0070416275 -0.023253532 0.76066875 10393226
0.0082569821 -0.023253532 0.76066875 10853777
0.0094785634 -0.023268815 0.76116866 12235691
0.010701742 -0.023284098 0.76166862 12301484
0.011928474 -0.023303203 0.76229358 10919316
0.013146425 -0.023303203 0.76229358 10261386
0.014373797 -0.023318484 0.76279348 10064261
0.015605322 -0.02333759 0.76341844 10064261
0.016833333 -0.023349052 0.76379341 9998981
0.018053681 -0.023349052 0.76379341 9998981
0.019286646 -0.023364337 0.76429337 9933186
0.02051785 -0.023375798 0.76466829 9933186
0.021750258 -0.023387261 0.76504326 9933186
0.022980109 -0.023394901 0.76529324 9933186
0.024202853 -0.023394901 0.76529324 9998979
0.02542975 -0.023398723 0.76541823 9867393
0.026657047 -0.023402544 0.76554322 9867393
0.02788474 -0.023406364 0.76566821 9801600
0.029108085 -0.023406364 0.76566821 9604223
0.030331425 -0.023406364 0.76566821 9604223
0.03155477 -0.023406364 0.76566821 9604991
0.032778114 -0.023406364 0.76566821 9604991
0.034001455 -0.023406364 0.76566821 9276791
